x	y	z
1.088705452	5.193040908	-0.148022843
1.763878265	5.397419654	-0.204245379
1.536997262	5.356122054	-0.252353963
1.300490497	5.241930264	-0.296942736
1.140062624	5.429045237	-0.358057347
1.897270027	5.795316161	-0.442350605
1.312973501	5.242193502	0.097631464
1.157066048	5.452369923	0.048349867
1.294058741	5.158269413	-0.097099034
1.164150919	5.469300995	-0.155998451
1.836517944	5.56184646	-0.21067973
1.551472942	5.344665732	-0.252037284
1.320947677	5.255346303	-0.297930891
1.162747683	5.453825688	-0.359925267
1.920992042	5.807459719	-0.443725267
1.332492634	5.251708728	0.097884344
1.176736307	5.462479722	0.048471304
1.800607729	5.404961007	0.003877825
1.525352312	5.203831453	-0.048649039
1.311848189	5.162027478	-0.09724508
1.143770411	5.293740183	-0.151090381
1.907336193	5.717344875	-0.216790547
1.573772958	5.360009489	-0.252987352
1.330166151	5.22417562	-0.296393747
1.173353203	5.421947818	-0.358057347
1.348598432	5.247595886	0.097884344
1.185159822	5.420745351	0.04813301
1.587069262	5.353481015	-0.050093349
1.331666571	5.173470665	-0.097537158
1.149086835	5.240409372	-0.149668169
1.590494138	5.356113267	-0.253032591
1.347683489	5.225871351	-0.296723152
1.188697591	5.412474565	-0.3576709
1.364691472	5.243433866	0.097884344
1.210231337	5.455156577	0.048471304
1.635360429	5.454907004	-0.051089115
1.348288944	5.172263299	-0.097591927
1.167763942	5.248568092	-0.150002805
1.61898597	5.391392953	-0.254932698
1.366737546	5.233304799	-0.297381932
1.211157643	5.435100982	-0.359409985
1.384084103	5.251791141	0.098119171
1.221692081	5.428004736	0.048263123
1.661661343	5.481443732	-0.051385157
1.36925435	5.187437132	-0.097957028
1.180559453	5.230334775	-0.1495845
1.645967704	5.420812231	-0.256561365
1.397081678	5.283144738	-0.300456191
1.228486757	5.43427983	-0.359603194
1.404314062	5.262976473	0.098408179
1.235891128	5.413507148	0.048167707
1.683451791	5.492573294	-0.051537659
1.391874265	5.208326269	-0.09843166
1.185000132	5.176019137	-0.148134393
1.66845423	5.43483674	-0.257466193
1.423612664	5.317414447	-0.302652115
1.248275468	5.444102581	-0.360504952
1.425668648	5.277948301	0.098769443
1.241441623	5.361954965	0.047742674
1.701182736	5.490247864	-0.051564574
1.400796918	5.177972512	-0.097938774
1.196353002	5.152885256	-0.147576657
1.693114954	5.455452963	-0.258687702
1.446449244	5.33711528	-0.304024572
1.265197871	5.441219472	-0.360569355
1.440008612	5.266798445	0.098642999
1.253543699	5.339624262	0.047577863
1.718317461	5.485957304	-0.051573545
1.416412112	5.172686493	-0.09792052
1.211698149	5.147244568	-0.147520882
1.725393567	5.49979795	-0.261040237
1.471797331	5.365391484	-0.305891091
1.283946165	5.446053913	-0.36114904
1.449760699	5.239228634	0.098209487
1.267372727	5.325052597	0.047482448
1.736950948	5.486379719	-0.051627368
1.444290737	5.211674735	-0.098741998
1.228412143	5.147392149	-0.147632432
1.744976212	5.503048551	-0.261447396
1.501338746	5.407994188	-0.308581079
1.302504165	5.449854036	-0.361664323
1.485238889	5.304077899	0.099510031
1.27971721	5.304614348	0.047334986
1.750117923	5.469596335	-0.051519718
1.445154771	5.153308495	-0.097719712
1.243258218	5.139712867	-0.147520882
1.770082614	5.523355053	-0.262668905
1.513062441	5.386059773	-0.307592924
1.318748042	5.443892288	-0.361535516
1.494963248	5.27640924	0.099076519
1.282923558	5.247238804	0.046857906
1.769351412	5.471812919	-0.051591486
1.259972754	5.139757811	-0.147632432
1.803024709	5.567317837	-0.26502144
1.555786774	5.473595174	-0.312863136
1.343056881	5.470833674	-0.363596645
1.510317527	5.268914536	0.099022331
1.31127971	5.292779918	0.047300292
1.784266859	5.460655564	-0.051537659
1.278868081	5.148479702	-0.147994963
1.844020548	5.634866326	-0.268504974
1.575607572	5.479351975	-0.313466991
1.357907749	5.458939949	-0.363081362
1.54039788	5.312270149	0.099925483
1.314608921	5.237328293	0.046840558
1.800071092	5.452307168	-0.051510747
1.526818189	5.257890071	-0.099965093
1.298804566	5.16101146	-0.148469028
1.899873995	5.745844579	-0.274069604
1.595199404	5.484080162	-0.31401598
1.376843906	5.463457464	-0.363661048
1.566537329	5.341098844	0.100557694
1.328699264	5.225517697	0.046771167
1.821219683	5.460039061	-0.051636338
1.579853096	5.378851025	-0.102356514
1.317348434	5.167657556	-0.148775784
1.926039168	5.765571366	-0.275291112
1.628080603	5.533760189	-0.317145164
1.394586405	5.463075414	-0.363918689
1.587750017	5.352562962	0.10086477
1.347218577	5.231100151	0.046857906
3.805246115	11.29263334	-0.106905881
1.628804286	5.48324086	-0.104437595
1.334195944	5.167462883	-0.148887334
1.641348457	5.516298127	-0.316431488
1.413088856	5.465534294	-0.364369568
1.617665986	5.39267776	0.101713741
1.361242146	5.219201691	0.046788515
3.846640083	11.30078515	-0.107094269
1.643893052	5.472472536	-0.104328064
1.351054657	5.167213787	-0.148998884
1.665456771	5.535139983	-0.317803944
1.43389442	5.476619093	-0.365400132
1.640007202	5.406825361	0.102075005
1.381333346	5.230469824	0.046927301
3.882267636	11.29176738	-0.107121181
1.659221716	5.462620137	-0.104236794
1.363831166	5.151448821	-0.148664248
1.68155868	5.527138688	-0.317639256
1.455548284	5.49052193	-0.366623935
1.659812051	5.412283003	0.102273697
1.399698284	5.234901952	0.047005368
3.927060695	11.30908666	-0.107399281
1.698867218	5.532054712	-0.10566069
1.376782437	5.136619343	-0.148357493
1.701149777	5.530542779	-0.318133319
1.478594392	5.509162077	-0.368169782
1.683514866	5.430085399	0.102707217
1.41313964	5.220930485	0.046918625
3.95545078	11.2790564	-0.107228834
1.725614092	5.558327336	-0.106263114
1.410072492	5.197008476	-0.150225905
1.729375503	5.561529431	-0.320219452
1.497059059	5.510378047	-0.368556258
1.698073076	5.418216045	0.102580773
1.427036752	5.208855331	0.046849234
4.001385368	11.29891703	-0.107533846
1.751340482	5.580672169	-0.106792507
1.416745033	5.158920653	-0.149249864
1.740441823	5.537146623	-0.319121475
1.513693037	5.504796633	-0.368491825
1.756656892	5.545470047	0.105091551
1.449422882	5.227579021	0.047057414
4.027613225	11.26304817	-0.107309569
1.75636159	5.537151403	-0.106062306
1.434707065	5.162254651	-0.149472964
1.770119045	5.571748962	-0.321427191
1.536192608	5.520316144	-0.369844463
1.759638464	5.496252254	0.104260648
1.474638356	5.25584272	0.047352334
4.075053179	11.28637902	-0.107650462
1.758079955	5.484131478	-0.10514955
1.448102328	5.149168214	-0.149221969
1.789951796	5.574848491	-0.321921284
1.553392034	5.516537983	-0.369908866
1.781109109	5.505096929	0.104531595
1.4809252	5.216663456	0.047040066
4.115824571	11.29073499	-0.107811939
1.770582781	5.465395582	-0.10489398
1.486873104	5.225462923	-0.151564462
1.842176883	5.677602128	-0.328179652
1.563746843	5.488712373	-0.368363019
1.793019012	5.484401453	0.104242587
1.522593746	5.30147847	0.047846762
4.159424084	11.3024537	-0.108045179
1.787964089	5.461838279	-0.104930488
1.518106302	5.273709521	-0.153098238
1.876695771	5.724107489	-0.331199015
1.586658831	5.504984587	-0.369780031
1.51876479	5.227643965	0.047222221
4.196517643	11.29620079	-0.10810798
1.793095412	5.42120489	-0.104255048
1.535676004	5.273826008	-0.153237668
1.892992411	5.71453194	-0.330979432
1.602143875	5.495301047	-0.369457987
1.78359016	5.344312096	0.10178599
4.23782503	11.30106236	-0.108278427
1.828098164	5.470678852	-0.105313843
1.558626494	5.29210324	-0.153906954
1.626334212	5.515246184	-0.371132668
4.274246285	11.29268444	-0.10832328
1.599966127	5.371601996	-0.156360981
1.646954513	5.522662822	-0.371969995
4.311012318	11.28512228	-0.108377103
1.610095983	5.345610942	-0.155747471
1.666483136	5.526182667	-0.37254968
1.613329579	5.30907282	0.04813301
4.348851735	11.28024032	-0.108457845
1.625614864	5.337777767	-0.155663816
1.69041457	5.543953184	-0.374095556
1.641063292	5.341376635	0.048471304
4.379088014	11.25566248	-0.108350191
1.663750895	5.403460883	-0.157727433
1.711824894	5.553045184	-0.375061688
1.683840798	5.421308296	0.049243307
4.435889885	11.29895323	-0.108897414
1.680320714	5.398331214	-0.157727433
1.732416192	5.559200258	-0.375834611
1.718137817	5.472405531	0.049755083
4.481582435	11.31318112	-0.109166544
1.705574996	5.42080318	-0.158536149
1.752461575	5.563377326	-0.376478728
1.759115749	5.543358657	0.050449016
4.521465249	11.31237756	-0.109292131
1.708565575	5.37267789	-0.157281247
1.775576419	5.576992347	-0.377766934
1.769395805	5.516987329	0.050258184
4.55839363	11.30401743	-0.109345961
1.72014692	5.352183799	-0.156835061
1.838220899	5.713062876	-0.387364086
1.79124627	5.526753018	0.050396973
4.602473184	11.31313565	-0.109570231
1.864688175	5.734917941	-0.389231977
1.799790671	5.495573091	0.050162768
4.633742566	11.29063611	-0.109489497
1.822150576	5.552378633	-0.163025913
1.881650973	5.727274339	-0.389103171
4.704697252	11.36413854	-0.110341724
1.837917956	5.542966925	-0.162914363
1.908959074	5.750834868	-0.391099897
4.850514485	11.61539955	-0.112925339
4.843041515	11.49817163	-0.111929569
4.924039549	11.59094029	-0.112979162
4.973359938	11.6079494	-0.113293145
9.199152375	15.55081349	-0.329888461
9.24988892	15.52767189	-0.329997984
9.299026875	15.50179256	-0.330052761
10.37099289	15.30508549	-0.337555615
10.49170518	15.38139971	-0.339947042
10.59770211	15.43486029	-0.34184557
10.62965753	15.38006665	-0.341352669
10.72589712	15.41796845	-0.342922626
10.77257505	15.38417036	-0.342904357
10.82260215	15.35513416	-0.342995641
10.87139601	15.32430527	-0.343050388
13.47660775	14.85836031	-0.366252659
13.63333661	14.93880053	-0.369264779
13.66287394	14.87922905	-0.368826655
13.69149573	14.81888232	-0.368370262
13.73689553	14.77680807	-0.368370263
13.76304159	14.71414885	-0.367859123
13.78756166	14.65001245	-0.367311475
13.81800597	14.59239831	-0.366928098
13.84615765	14.53256314	-0.366489974
9.724122653	8.815923488	-0.472115239
13.88168222	14.48063208	-0.366252658
9.921897354	11.12701133	-0.415902925
9.762259755	8.79608302	-0.472654452
13.90105537	14.41206902	-0.365595487
9.955320277	11.09577524	-0.41587503
9.801856073	8.777425101	-0.473265519
13.68965559	14.10603157	-0.358895866
10.00137174	11.07853631	-0.416376991
9.850388414	8.766579672	-0.474307945
13.28861006	13.60899705	-0.347285596
10.02859195	11.04040058	-0.41609813
9.88996299	8.747572685	-0.474919041
13.25392237	13.49042349	-0.345295784
10.10625103	11.05754275	-0.417910767
9.934767626	8.733025053	-0.475781759
13.20246626	13.35583778	-0.342886118
10.09005616	10.97203628	-0.415847165
9.991617272	8.728803787	-0.477219601
13.23632781	13.30818143	-0.342703549
10.17730253	10.99899194	-0.418050212
10.02287803	8.702039547	-0.477435251
13.46663676	13.45691529	-0.347595928
10.26344741	11.02405177	-0.420197499
10.06617428	8.685612148	-0.478226086
13.72635613	13.63254186	-0.353218523
10.30132017	10.99688848	-0.420364809
10.10870485	8.66835025	-0.478980949
13.76882757	13.59106737	-0.353236762
10.35009343	10.98123612	-0.42097832
10.15122408	8.650908078	-0.479735812
13.70768331	13.44793409	-0.350608019
10.39405256	10.96031096	-0.421396625
10.18991919	8.630057439	-0.480310937
13.69303931	13.35137164	-0.349184123
10.4352203	10.93632648	-0.421703381
10.2301098	8.610338757	-0.480957975
13.71239671	13.28842528	-0.348636476
10.47633847	10.9121914	-0.422010136
10.27870813	8.597506523	-0.482000401
13.73581683	13.22964745	-0.348198352
10.53476873	10.90588245	-0.423014057
10.33347113	8.589567538	-0.483330419
13.75900622	13.17085058	-0.347760228
10.62879107	10.93587423	-0.425440204
10.35515226	8.554006278	-0.483114739
13.75588667	13.08722673	-0.346664903
10.65879712	10.89964102	-0.42530076
10.38211973	8.522830916	-0.483150681
11.61869392	10.98620788	-0.291954306
10.75458287	10.9303043	-0.427782667
10.4570028	8.530737065	-0.48541527
11.65015856	10.94845675	-0.29189953
10.78454988	10.89370593	-0.427643252
10.47769156	8.494209563	-0.485163649
11.66469554	10.89491851	-0.291424898
10.82850161	10.87119148	-0.428061557
10.5153759	8.471429207	-0.485702862
11.68047906	10.84275548	-0.290986774
10.86180275	10.83791962	-0.428061557
10.55301842	8.448497149	-0.486242046
10.91061735	10.82003058	-0.428675068
10.60782436	8.439101472	-0.487572035
10.94732129	10.79001465	-0.428814483
10.65718401	8.425109966	-0.488650431
10.98679951	10.76267287	-0.429065478
10.69005479	8.397930972	-0.488973936
11.06703784	10.77493816	-0.43090598
10.72207124	8.370014704	-0.489261499
11.11153633	10.75205677	-0.431352181
10.75480596	8.342592358	-0.489585032
11.15815966	10.73108181	-0.431882036
10.79063933	8.317489253	-0.490052332
10.80341302	8.274621972	-0.489477178
11.34699805	10.7794554	-0.436622781
10.8502197	8.257780359	-0.49044772
10.90180636	8.244345173	-0.491633942
12.03093372	10.49973676	-0.29155269
11.43843797	10.73356885	-0.437598807
10.99256155	8.260088504	-0.494581511
11.48227978	10.70865244	-0.438017112
11.0386716	8.241869485	-0.495516112
11.52167755	10.67949028	-0.438268107
11.05587883	8.202010524	-0.495156636
12.1976773	10.44905552	-0.293250409
11.57350273	10.66170165	-0.438993139
11.08662174	8.172204134	-0.495408287
11.63343708	10.65111994	-0.440024954
11.14792245	8.164724101	-0.497025838
11.69489359	10.64161683	-0.441112531
11.18504008	8.13930438	-0.497565022
9.335480701	7.32764242	-0.53746238
11.70672765	10.58691337	-0.44033171
11.20752854	8.103194792	-0.497457197
12.5896837	10.51976312	-0.299548415
11.76368681	10.57299855	-0.441251976
11.24694586	8.079267319	-0.498104264
9.385003157	7.27389496	-0.53773382
13.12111319	10.89563164	-0.311396001
11.83930851	10.57548121	-0.442869407
11.34326148	8.0958127	-0.501267483
9.407275529	7.245067741	-0.53773382
13.02492402	10.74841356	-0.308329133
11.93075274	10.59153653	-0.445072455
11.37456723	8.065598341	-0.501555075
9.442151829	7.225886362	-0.538457659
13.09262773	10.73693379	-0.309150634
12.01191359	10.59787009	-0.446885092
11.45726383	8.071528098	-0.504107227
9.497673438	7.222280772	-0.540357795
13.0704783	10.65186941	-0.307854501
12.03084252	10.5491051	-0.446383131
11.52864051	8.069002443	-0.506156137
9.552465651	7.217800092	-0.542212692
13.08134044	10.59410009	-0.307343361
12.08801868	10.53381785	-0.447303397
11.55580314	8.035306749	-0.506263962
9.564178663	7.180662156	-0.541624513
12.13690369	10.51107954	-0.447916908
11.59684575	8.011176262	-0.506982913
9.626199124	7.181152762	-0.543886569
12.18424674	10.48683629	-0.448474658
11.64691224	7.993090008	-0.508097222
9.651395534	7.153965725	-0.544067529
12.24902592	10.47734539	-0.449673784
11.69697703	7.974771857	-0.509211531
9.669276485	7.121359799	-0.543841329
12.24150813	10.40605065	-0.448223663
11.71642337	7.935486062	-0.508995881
9.715264312	7.109359792	-0.545198586
12.32071951	10.40844055	-0.449952644
11.78134206	7.926838803	-0.510757257
9.764501488	7.099493992	-0.546736744
12.43604189	10.44065085	-0.452992302
11.80809874	7.892322961	-0.510865082
9.801622421	7.080618228	-0.547596362
12.48797176	10.41909868	-0.453717363
11.83142432	7.855506213	-0.510829141
9.847646092	7.067988425	-0.54895356
12.58528616	10.43496958	-0.456087721
11.92304274	7.863738953	-0.513740768
9.882298343	7.047023379	-0.549677399
12.59332534	10.37660357	-0.455223245
11.97219045	7.843552501	-0.514819136
9.925880043	7.032264232	-0.550898936
12.66299777	10.36895008	-0.456589681
11.99871056	7.808420363	-0.514926961
9.956393741	7.0081041	-0.551396575
12.70482971	10.33825386	-0.456952226
12.0351987	7.779710079	-0.515466144
10.01959959	7.006722343	-0.553703871
12.73337807	10.29671334	-0.456840676
12.07246526	7.751388714	-0.516041329
10.0476122	6.980509619	-0.554065791
12.77114193	10.26260855	-0.457063777
12.13663331	7.74010788	-0.517766705
10.08131273	6.95816294	-0.55474439
12.81037746	10.22961663	-0.457342637
12.17467474	7.711927747	-0.518377772
10.10508476	6.928895777	-0.55488011
12.87928671	10.2200917	-0.458681208
12.23295718	7.696359277	-0.519851615
10.15106331	6.914733224	-0.556237366
12.93883866	10.20281333	-0.459685129
12.24125684	7.649260701	-0.519204547
10.18960437	6.895314816	-0.557187405
12.98660334	10.17601625	-0.460270745
12.3886387	7.688607734	-0.524452677
10.23475364	6.880183484	-0.558499422
13.03905741	10.15270763	-0.461023671
12.39855628	7.642173928	-0.523877551
10.26661369	6.85596347	-0.559087542
13.08595553	10.1248909	-0.461581421
12.4432527	7.617143705	-0.52477621
10.30591261	6.836582701	-0.56008282
13.13042861	10.09505325	-0.462055487
12.45289994	7.570626027	-0.524201085
10.34352185	6.815925749	-0.560987678
13.1645154	10.05715028	-0.462167037
12.56247533	7.584553913	-0.527831604
10.39196695	6.802215178	-0.562480596
13.21600976	10.0324289	-0.462892098
12.64911128	7.584004803	-0.53049164
10.45298743	6.796438999	-0.564652172
13.27465781	10.01290399	-0.463868124
12.68691652	7.553853884	-0.531102707
10.51742707	6.792520392	-0.567004707
8.900399967	6.216809293	-0.596904869
13.32211181	9.984720563	-0.464453739
12.71777353	7.519472715	-0.531426182
10.54830618	6.76669379	-0.567547586
8.922711848	6.19175095	-0.597124452
13.40960408	9.98619154	-0.466433716
12.77956419	7.503189185	-0.533043792
10.57575706	6.738594869	-0.567909506
8.951530854	6.171148501	-0.597783203
13.45544577	9.956301776	-0.466963572
12.80511358	7.465456805	-0.533151617
10.62930166	6.726951875	-0.569673922
8.994311856	6.160018274	-0.599375243
13.47626322	9.907868654	-0.466628921
12.87552503	7.453673658	-0.535128643
10.67779966	6.711853996	-0.571166899
9.016470813	6.134641902	-0.599594827
13.49933248	9.861171102	-0.466377926
12.91652734	7.424595387	-0.535883536
10.69156222	6.674830947	-0.570804921
9.040212132	6.110305822	-0.599924261
13.53842174	9.826167389	-0.466684682
13.01649179	7.429020871	-0.539082697
10.72387589	6.649368129	-0.571438339
9.07135036	6.09089102	-0.600747699
13.57336844	9.788094616	-0.466852021
13.04791688	7.393978766	-0.539442172
10.80547093	6.65415231	-0.574695673
9.114914227	6.07965333	-0.602394635
13.58708272	9.73476198	-0.466294271
13.07141055	7.354403587	-0.539478113
10.83947024	6.629309434	-0.575419512
9.13851791	6.054969615	-0.602724011
13.60466911	9.684336011	-0.465875966
13.11310632	7.324988592	-0.540268948
10.87427279	6.604839227	-0.576188591
9.172063874	6.036785962	-0.603712196
13.61636104	9.629853926	-0.465262455
13.1529961	7.294417004	-0.54098784
10.94067655	6.59930924	-0.578631607
9.178005003	6.00042224	-0.602888698
13.56323383	9.529991116	-0.462445897
13.19282227	7.263669672	-0.541706791
10.96858454	6.570332476	-0.579038825
9.204745038	5.977674424	-0.603437716
13.57519414	9.476319372	-0.461860282
13.27029025	7.25335692	-0.54397135
10.99298327	6.539203991	-0.579265025
9.279258663	5.985670023	-0.60711586
13.57216861	9.412409796	-0.460772705
13.26085876	7.195452202	-0.542677333
11.03449594	6.518149407	-0.580396023
9.308508277	5.964176388	-0.607829565
13.56558608	9.346339994	-0.459573579
13.3215846	7.175586893	-0.544258942
11.06564339	6.490836105	-0.580984142
9.32086569	5.931837378	-0.607445235
13.56779951	9.286610065	-0.458681208
13.36204324	7.144578567	-0.545013835
11.1001795	6.46540416	-0.58175328
9.361808773	5.917617982	-0.608927483
13.56481561	9.223582177	-0.457621497
13.38919556	7.106362078	-0.545229485
11.1433123	6.444822367	-0.582974759
9.389222314	5.894708509	-0.609531397
13.57399701	9.169053271	-0.456980092
13.40828294	7.06385377	-0.54512166
11.19161905	6.42702218	-0.584467735
9.426749816	5.878026319	-0.610794003
13.57384214	9.108428317	-0.456031961
13.46000059	7.038429282	-0.546343794
11.2199628	6.39760457	-0.584920135
9.456623368	5.856437746	-0.611562604
13.58674997	9.056762005	-0.45553
13.45137289	6.981448845	-0.54512166
11.32473143	6.411383854	-0.589353707
9.469443562	5.824259361	-0.611233229
13.58196736	8.993512202	-0.454442394
13.47006348	6.938774651	-0.545013835
11.34870218	6.379057495	-0.589579966
9.50430914	5.805590032	-0.612331147
13.57024318	8.925982136	-0.453131718
13.4761611	6.889682872	-0.544402709
11.35077302	6.334473776	-0.588675108
9.531466412	5.782100145	-0.612935061
13.55572306	8.856969876	-0.451737387
13.48921418	6.844236677	-0.544079234
11.40947524	6.321406343	-0.590710964
9.573963792	5.767773409	-0.614527101
8.420784041	4.267044159	-0.684796938
13.53839172	8.786497364	-0.4502594
13.50032969	6.797876071	-0.543683817
11.45770066	6.302260873	-0.592203882
9.613034875	5.751189575	-0.615899557
8.456112063	4.252392042	-0.686605701
13.54596106	8.732463153	-0.449617994
13.51575803	6.753745788	-0.543468108
11.50065446	6.280006622	-0.59342542
9.67698948	5.749210086	-0.618863995
8.470903963	4.227319766	-0.686750362
13.55921834	8.682239624	-0.449171824
13.51940402	6.703813032	-0.542785158
11.54709232	6.259451548	-0.594827857
9.717801532	5.733193227	-0.620346243
8.484726287	4.201754106	-0.686822721
13.55880016	8.623432843	-0.448279423
13.51928332	6.652156656	-0.541958382
11.57591896	6.229203522	-0.595325556
9.731037395	5.700828725	-0.620071764
8.500262669	4.177023066	-0.687039801
13.5260355	8.544424184	-0.446327371
13.5153816	6.598810044	-0.54098784
11.61171724	6.202602539	-0.596185115
9.76401649	5.679984841	-0.621059949
8.514830429	4.151799119	-0.687184462
13.54287073	8.497042972	-0.446020615
13.50408446	6.542065148	-0.539729764
11.64834361	6.176308823	-0.597089914
9.801282613	5.661489138	-0.622322554
8.528425753	4.126090846	-0.687256822
13.54512165	8.440651249	-0.445239794
13.50968102	6.493676971	-0.53915458
11.67961347	6.14705652	-0.597723332
9.846322404	5.647289487	-0.624079341
8.5518347	4.10508623	-0.688125024
13.55480385	8.389061063	-0.444709939
13.51781277	6.446607372	-0.538687338
11.69664623	6.110269891	-0.597632852
9.876616751	5.624466462	-0.62490278
8.598606124	4.095126723	-0.690874347
13.53534201	8.319693224	-0.443231923
13.52036393	6.396983973	-0.538004329
11.77653024	6.106084794	-0.600754466
9.902517792	5.599053479	-0.625451739
8.540777844	5.245810498	-0.646937963
8.59670137	4.061909622	-0.689716766
13.53520663	8.26250359	-0.442395342
13.52002387	6.346132363	-0.537213495
11.82718538	6.086382157	-0.602383104
9.928356162	5.573534381	-0.626000757
8.569609903	5.227378082	-0.647904095
8.630796239	4.045676142	-0.691453168
13.54852498	8.213684142	-0.442004931
13.51678115	6.294076867	-0.536314895
11.87338145	6.064153883	-0.603785601
9.969829346	5.556659119	-0.627537901
8.607798708	5.214505847	-0.649578806
8.64949817	4.02212191	-0.691959628
13.54625578	8.155580449	-0.441112531
13.51153128	6.241263785	-0.535344352
11.98816416	6.076476445	-0.608671632
10.02614484	5.547800177	-0.630008275
8.643423334	5.199904854	-0.65106022
8.668137479	3.998491027	-0.692466089
13.54890684	8.100645596	-0.4403875
13.51517093	6.19270469	-0.534733226
11.9987182	6.035628483	-0.608264473
10.05186961	5.521822031	-0.630557293
8.668759973	5.178992698	-0.651768741
8.683991435	3.973538932	-0.69275547
13.54962792	8.044751109	-0.439606649
13.50590292	6.138393142	-0.533618917
11.97963903	5.980049271	-0.606364336
10.0854186	5.500040257	-0.631600316
8.69748146	5.160010542	-0.652734873
8.703406736	3.950175771	-0.69333429
13.56046775	7.995019995	-0.439160478
13.50827198	6.089535763	-0.532971908
12.02030787	5.954353597	-0.607495335
10.12595258	5.481907437	-0.633082563
8.724448447	5.139888032	-0.653572199
8.717303451	3.924274038	-0.693478951
13.55819099	7.937723143	-0.438295973
13.50955705	6.040314184	-0.532288899
12.03314021	5.914804044	-0.607223895
10.17086803	5.465941083	-0.634839291
8.741898975	5.114105231	-0.653701063
8.730212492	3.897917975	-0.693551311
13.54359113	7.873482344	-0.437041086
13.50701345	5.989521527	-0.531462183
12.08714489	5.895375739	-0.609033552
10.18406552	5.43283167	-0.634619708
8.767040194	5.092775371	-0.654409584
8.755809547	3.877173193	-0.694636592
13.53305323	7.81190491	-0.435925615
13.50885899	5.940812744	-0.530815115
12.11866225	5.864792915	-0.60971215
10.22274547	5.413243636	-0.635992164
8.805962275	5.079316887	-0.656148609
8.784101065	3.857510927	-0.695938894
13.53874428	7.759910708	-0.43534
13.52244079	5.897343055	-0.530635407
12.20684057	5.861313659	-0.613240924
10.25698255	5.391146198	-0.637090141
8.855276808	5.07161883	-0.658660647
8.824242322	3.84288868	-0.698181758
13.55379972	7.713393679	-0.43506111
13.49460771	5.835994454	-0.528838088
12.26805503	5.844459252	-0.6154125
10.29206392	5.36935172	-0.638242955
8.879468971	5.049360291	-0.659304735
8.851556046	3.822520387	-0.699411699
13.5599939	7.6619397	-0.434503389
13.48856929	5.784325727	-0.527903488
12.28050843	5.804232327	-0.615141061
10.34484197	5.356574418	-0.640493804
8.893180522	5.021113377	-0.659175929
8.860491847	3.794168261	-0.699194679
13.56774474	7.611498743	-0.434001428
13.49889436	5.7397877	-0.527615954
12.32358369	5.7784041	-0.616407838
10.39852726	5.343980866	-0.642799492
8.908543159	4.993806045	-0.659175929
8.876680685	3.768915886	-0.69955642
13.52204242	7.531412077	-0.431798381
13.49618114	5.6898057	-0.52682512
12.34578239	5.742674953	-0.616634038
10.42643599	5.317951161	-0.643513197
8.930798271	4.970333656	-0.659691212
8.896474753	3.745147504	-0.700207541
13.54595956	7.490375721	-0.431826246
13.49328802	5.639894814	-0.526034286
12.37513492	5.710212733	-0.617222157
10.46052006	5.29495717	-0.644611116
8.956486888	4.948702068	-0.660464106
8.917127473	3.721677454	-0.700931082
13.54258854	7.434350679	-0.430989665
13.4883706	5.589289729	-0.525171628
12.4025871	5.676793134	-0.617719796
10.50080523	5.274941183	-0.646093363
8.995249712	4.934158857	-0.66220319
8.908228079	3.685913413	-0.69933934
13.5425118	7.380330932	-0.430264604
13.4860418	5.539907312	-0.524416735
12.444504	5.649865786	-0.618941333
10.56430122	5.266310318	-0.649002964
9.026121158	4.915129293	-0.663362619
8.937026825	3.665757505	-0.700714002
13.56157367	7.336845674	-0.430153054
13.48724004	5.492099473	-0.523805668
12.49639284	5.62724677	-0.620660451
10.59562247	5.24140086	-0.649936253
9.063982368	4.8997525	-0.665037271
8.951002959	3.639448789	-0.700931081
13.56112271	7.282908341	-0.429427994
13.47529891	5.439099888	-0.5226913
12.57015072	5.614139801	-0.623465386
10.62868352	5.217228744	-0.650979275
9.087764771	4.876640166	-0.665681359
8.967676437	3.614207285	-0.701365181
13.53753303	7.216816615	-0.427977872
13.50120088	5.401444497	-0.523050775
12.60010286	5.581212719	-0.624098745
10.64733296	5.18590755	-0.651143963
9.110610949	4.852958686	-0.666261074
8.982427658	3.588157834	-0.701654563
13.54635713	7.168236925	-0.427559597
13.47125891	5.341579983	-0.521253457
12.637288	5.551368959	-0.625094083
10.67218255	5.157562433	-0.651692981
9.136924982	4.831048834	-0.6670984
8.994321071	3.560950427	-0.701726923
13.54527666	7.114558123	-0.426834536
13.45688983	5.288163784	-0.520067265
12.68081923	5.524142646	-0.626406041
10.70956373	5.135156945	-0.653010482
9.172026461	4.813660533	-0.668579814
9.010774357	3.535525241	-0.702161023
13.58831346	7.084059028	-0.427503807
13.4609442	5.242139549	-0.519599964
12.70412717	5.487985266	-0.62672272
10.73789105	5.108281712	-0.653779084
9.215958303	4.800712721	-0.670705375
9.022508267	3.508225407	-0.702233383
13.61442189	7.044634194	-0.427643252
13.45831654	5.193621493	-0.518881072
12.73192346	5.453703842	-0.627265658
10.79414704	5.09449198	-0.656249459
9.243940235	4.779290261	-0.671671566
9.041604901	3.483755634	-0.702884505
13.6172972	6.993242828	-0.427057636
13.46018581	5.146953125	-0.51834183
12.78721356	5.431019177	-0.629165736
10.85041766	5.080405293	-0.658719892
9.269213082	4.756374985	-0.67244446
9.080204533	3.466672103	-0.705055067
13.74556001	7.005903733	-0.43040402
13.47404408	5.104925833	-0.518269947
12.84432552	5.408821914	-0.631156352
10.8786315	5.052981598	-0.659488435
9.290875617	4.731538221	-0.672959742
9.099193169	3.441973982	-0.705706189
13.84726805	7.004307371	-0.432913852
13.47093018	5.056539945	-0.517551055
12.86454589	5.370930101	-0.631337312
10.95665608	5.048413781	-0.663276429
9.340974157	4.721017235	-0.675536153
9.115313518	3.416141961	-0.706140289
13.88745297	6.971208926	-0.433499468
13.47888595	5.012401261	-0.517263462
12.89665512	5.337931661	-0.63210645
10.94030728	5.000248371	-0.661355013
9.367901579	4.698600744	-0.676437911
9.134166507	3.391284853	-0.70679147
13.94098582	6.944615647	-0.434503389
13.47075645	4.962388912	-0.516364803
12.93237912	5.306303711	-0.633056488
10.99833873	4.986037221	-0.663935179
9.397460491	4.677397486	-0.677532908
9.158568341	3.368409729	-0.707876691
13.95326493	6.897383101	-0.434224528
13.48779575	4.921723062	-0.516436687
12.97450834	5.277141072	-0.634323207
11.02542282	4.957594965	-0.664648885
9.426082253	4.655615493	-0.678563472
9.173545379	3.342002923	-0.708238491
14.00218167	6.868188979	-0.435089005
13.48309451	4.873186541	-0.515681853
13.04530156	5.259349618	-0.636992422
11.05790695	4.931473104	-0.665691907
9.443904914	4.628431085	-0.678821084
9.187508077	3.315197248	-0.708527872
14.03127564	6.82913591	-0.435339999
13.49327763	4.83011363	-0.515502145
13.06415803	5.220414776	-0.637128141
11.08576896	4.903178873	-0.666460509
9.467932492	4.60423659	-0.679529604
9.206088837	3.290015681	-0.709178994
14.05216165	6.786056101	-0.43534
13.51933599	4.792701246	-0.515933445
13.08197057	5.181045587	-0.637218622
11.10075955	4.869145044	-0.666460509
9.512571194	4.589912283	-0.681719538
9.224601304	3.264751142	-0.709830174
14.07561909	6.74420857	-0.435423655
13.53963358	4.753188387	-0.516149153
13.11268288	5.146726145	-0.63794252
11.14769191	4.849005379	-0.668381924
9.52930856	4.56199921	-0.681912777
9.248692187	3.241383213	-0.710915455
14.08811817	6.69713122	-0.43517266
13.55698374	4.71261122	-0.516256978
13.13585866	5.109369764	-0.638304439
11.22302787	4.840882581	-0.672005172
9.54325961	4.532742536	-0.681912777
9.273669409	3.218225321	-0.712073037
14.09955804	6.649613885	-0.434893799
13.59405722	4.67880227	-0.517119696
13.21578986	5.093835399	-0.641426053
11.23690846	4.806035521	-0.671950276
9.553510717	4.501741252	-0.681655165
9.297647556	3.194620379	-0.713158318
14.10812195	6.600818748	-0.434531284
13.63010397	4.644487851	-0.517946472
13.26308478	5.065384017	-0.64296427
11.28745054	4.786742013	-0.674091275
9.579028568	4.477904085	-0.682492491
9.314958944	3.16865007	-0.71373708
14.11107859	6.549508417	-0.434001428
13.64618307	4.603288359	-0.518018355
13.31313237	5.037751388	-0.644638148
11.30576449	4.753637947	-0.674310917
9.598153307	4.451013852	-0.682878967
9.324636548	3.140057368	-0.71373708
14.12838167	6.504931617	-0.433917773
13.69910586	4.574378365	-0.51949214
13.36500662	5.010559865	-0.646402564
11.34057162	4.727381813	-0.675518627
9.625362669	4.427802056	-0.683845099
9.335171887	3.111750265	-0.713809439
14.15281856	6.463631762	-0.434057188
13.75577411	4.546441089	-0.52110969
13.40279069	4.977880435	-0.647488323
11.41592648	4.717736837	-0.679141934
9.688834868	4.421035534	-0.687387701
9.309630109	3.071533408	-0.711132476
14.16438786	6.416468825	-0.433806223
13.79910274	4.513849372	-0.522224
13.41237498	4.93466864	-0.647216883
11.39523524	4.668307016	-0.677055771
9.709626653	4.394581472	-0.687902984
9.349349601	3.052864311	-0.713447699
14.18218307	6.372163677	-0.433750433
13.84521268	4.481957615	-0.523446193
13.44809985	4.901021735	-0.648212221
11.50849172	4.673523268	-0.682929868
9.723063084	4.364772476	-0.687902984
9.367213169	3.026926507	-0.71409888
14.18340472	6.320485774	-0.433192712
13.89030449	4.449520787	-0.524632385
13.44428004	4.852957184	-0.647307363
11.5283333	4.640430951	-0.683259244
9.772873934	4.351157454	-0.690479394
9.382155068	2.999996832	-0.71453298
14.17529976	6.264819702	-0.432356102
13.90674735	4.407790834	-0.524740269
13.43652955	4.803616623	-0.646221605
11.54066123	4.604300757	-0.683149452
9.779786941	4.318332664	-0.690028486
9.402725938	2.974808762	-0.715401181
14.16515618	6.208460403	-0.431463731
13.93546249	4.369888885	-0.525315394
13.44272788	4.759370585	-0.645814445
11.56308987	4.572176997	-0.683643515
9.830468212	4.304720214	-0.692669329
9.411808283	2.945947563	-0.715401181
14.18046938	6.163379345	-0.431352181
13.9965276	4.341919869	-0.527112712
13.43746914	4.711165838	-0.644864347
11.5844994	4.53959503	-0.684082741
9.844543984	4.274937829	-0.692733761
9.426518651	2.918828907	-0.715835282
14.19104982	6.116284216	-0.431101215
14.03653312	4.307166838	-0.528119196
13.45752225	4.671883661	-0.645135787
11.61047262	4.508731629	-0.684796388
9.864945817	4.247872546	-0.693249043
9.437336511	2.890479001	-0.715979943
14.20515158	6.070753671	-0.43096177
14.0745449	4.271629343	-0.529053797
13.49163099	4.637394154	-0.646085885
11.66245767	4.487792667	-0.687047179
9.903628973	4.228559284	-0.695052501
9.461432772	2.86613875	-0.717137584
14.21910777	6.025194591	-0.430822325
14.10098424	4.232451132	-0.529557039
13.49917456	4.593727428	-0.645769205
11.70602595	4.463374736	-0.688803965
9.911041491	4.195821224	-0.694666025
9.479735855	2.839960227	-0.717861066
14.24029029	5.982704033	-0.43090598
14.20300076	4.215615527	-0.532900025
13.49332415	4.545593667	-0.644819108
11.72807111	4.430615994	-0.689298029
9.944111052	4.173891706	-0.696083066
9.497966855	2.813696511	-0.718584606
14.25581024	5.93783413	-0.430822325
14.26573011	4.186655309	-0.534769168
13.51668327	4.507335651	-0.645271507
11.75563556	4.399863802	-0.690121467
9.93936396	4.136079758	-0.694859263
9.53431234	2.792674354	-0.72068275
14.28135175	5.89712231	-0.431045425
14.29194463	4.14676734	-0.53527241
13.5219096	4.463027971	-0.644864347
11.77563201	4.366207213	-0.690505797
9.992596795	4.122311444	-0.697693344
9.548583524	2.765074863	-0.72111685
14.33360508	5.867291022	-0.432077241
14.31228491	4.105104974	-0.535560002
13.54408502	4.424314036	-0.645271507
11.78990965	4.330403916	-0.690560693
10.01628134	4.096168307	-0.698466239
9.568527562	2.739061005	-0.721985051
14.33486579	5.816523305	-0.431575281
14.32769605	4.061993887	-0.535667827
13.56329776	4.384583923	-0.645543005
11.81346118	4.29796805	-0.691164548
10.05469573	4.075916551	-0.700269755
9.576885811	2.709692273	-0.721985051
14.36191707	5.776247485	-0.431854141
14.35933628	4.023410753	-0.536386778
13.57954019	4.343864805	-0.645678725
11.82377323	4.260688958	-0.69099986
10.07548752	4.048398803	-0.70084947
9.59571962	2.683252656	-0.722780892
14.38699937	5.735119612	-0.432077241
14.5883131	4.039340024	-0.544474651
13.60613706	4.306403389	-0.646312084
11.90167731	4.247551656	-0.694787796
10.08785968	4.017468379	-0.70084947
9.608713529	2.655128994	-0.723142633
14.4054559	5.691321017	-0.432105136
14.63823035	4.004849864	-0.545876493
13.64121153	4.271505879	-0.647352603
11.94289487	4.22099949	-0.696434731
10.12241561	3.99529321	-0.702395317
9.621624871	2.626950634	-0.723504433
14.42564179	5.648192421	-0.432188791
14.89356087	4.025633608	-0.554934909
13.66188591	4.232000154	-0.647714522
11.98123462	4.193245208	-0.69791698
10.14577767	3.968581451	-0.70316821
9.632528181	2.59819877	-0.723721454
14.43078765	5.599207828	-0.431826246
14.94349706	3.98997594	-0.55633681
13.69390845	4.195919023	-0.64861938
12.02611981	4.167583754	-0.699783499
10.1951239	3.951862803	-0.705744621
9.647199865	2.570431937	-0.724227914
14.45069676	5.555984886	-0.431909931
15.2223708	4.014445895	-0.566257944
13.72201369	4.158522706	-0.649343219
12.07284883	4.142334272	-0.701759869
10.19881619	3.917345764	-0.705164966
9.662756965	2.542853343	-0.724806735
14.44058455	5.501304534	-0.431101215
15.35453551	3.998957729	-0.570715239
13.75767338	4.123287823	-0.650428978
12.1223725	4.117800507	-0.703900868
10.20705596	3.884618085	-0.704907295
9.696576382	2.51996981	-0.726760158
14.46113525	5.458387305	-0.431212736
15.5264288	3.992900805	-0.576646318
13.85837597	4.107175471	-0.65459117
12.1340023	4.08027195	-0.703845972
10.23479874	3.859270437	-0.706002291
9.697499214	2.488473995	-0.726253698
14.50122043	5.422748539	-0.431909931
15.7468588	3.998122863	-0.584374716
13.95527379	4.089360256	-0.658572343
12.15498993	4.045864265	-0.704340035
10.25874339	3.832392402	-0.706839618
9.717657112	2.461894962	-0.727194259
14.55997033	5.393860373	-0.433164818
17.89069677	4.484061497	-0.663420071
14.02148754	4.062094046	-0.661105839
12.16924215	4.009179173	-0.704449827
10.28636292	3.80678897	-0.707934614
9.759997887	2.440781067	-0.729798922
14.57832678	5.349854573	-0.433220607
17.92668031	4.434672082	-0.664246847
14.09822836	4.037484691	-0.664137032
12.19097824	3.974921145	-0.704998846
10.31954369	3.783112928	-0.709416029
9.776154992	2.412977486	-0.730450044
14.59561071	5.305444907	-0.433248473
18.03340306	4.402405754	-0.667697658
14.27107038	4.039651084	-0.671692219
12.21451811	3.941180209	-0.705657596
10.35736541	3.760972306	-0.711219546
9.787387737	2.383917302	-0.730739424
14.61746217	5.262673176	-0.433415813
18.10997581	4.362270994	-0.670034101
14.34496718	4.013073641	-0.674587693
12.25318554	3.91219139	-0.70719474
10.37824548	3.732555798	-0.711863634
9.796595291	2.354344852	-0.730884144
14.67214232	5.23156727	-0.434559149
18.18452815	4.321245832	-0.67229872
14.40342917	3.981821668	-0.67675921
12.28131623	3.879693953	-0.70812803
10.402809	3.705386216	-0.712765392
9.815417253	2.32703937	-0.731752345
14.71451569	5.195848439	-0.43534
18.16753675	4.258366119	-0.671184411
14.63529436	3.997629604	-0.687074151
12.32461167	3.851826316	-0.709939653
10.43389127	3.680424392	-0.714118001
9.837078718	2.300321683	-0.732837627
14.75397596	5.158928922	-0.436037165
18.34117287	4.239746277	-0.67711549
14.6802827	3.961559462	-0.688612368
12.35067939	3.818420633	-0.710763092
10.44324921	3.647738269	-0.713989195
9.861583505	2.274165314	-0.734139929
14.79712732	5.123124243	-0.436845881
18.36286335	4.185455515	-0.677439024
14.67692302	3.912385484	-0.687888529
12.34705866	3.775839352	-0.709884757
10.4628786	3.618617207	-0.71456885
9.895745616	2.250091609	-0.736165712
14.8071017	5.075758629	-0.436678541
18.505298	4.158238932	-0.682219853
14.80478361	3.897860527	-0.69331744
12.41975134	3.756441827	-0.713398213
10.4862048	3.590703244	-0.715406176
9.90454804	2.220157646	-0.736310431
14.84532237	5.038016529	-0.437347841
18.5433372	4.107064925	-0.683154454
14.86308075	3.864488226	-0.695488957
12.44461097	3.722326661	-0.714166756
10.49811686	3.558835565	-0.715470609
9.923000159	2.192342347	-0.737178633
14.91851086	5.011866788	-0.439048928
18.58025817	4.055483051	-0.684053113
14.92614858	3.832036574	-0.697886732
12.43107703	3.676766371	-0.712739403
10.51182412	3.527563432	-0.715663847
9.924806316	2.160827806	-0.736816892
14.9954715	4.986576283	-0.440861565
18.62778538	4.006024833	-0.68534713
15.06565859	3.81862443	-0.703858581
12.46146592	3.644216269	-0.71383738
10.53206729	3.498442759	-0.716307935
9.939190905	2.132042267	-0.737395713
15.03158857	4.947422659	-0.441475076
18.8648491	3.996492968	-0.693614711
15.15483122	3.791783466	-0.707477835
12.46875053	3.604858756	-0.713617796
10.55128278	3.4689196	-0.71688765
9.957394429	2.104013523	-0.738263914
15.07425968	4.910261701	-0.442283792
18.92887191	3.949415714	-0.695519855
15.16348268	3.744552808	-0.707342115
12.56903691	3.592104861	-0.718723292
10.57611007	3.441163804	-0.717853782
9.972591442	2.075283645	-0.738915036
15.14253256	4.881165455	-0.443845434
18.83126165	3.868799688	-0.691493919
15.21372238	3.70747507	-0.709151771
12.62419868	3.566012307	-0.721248621
10.6084651	3.415734934	-0.719335254
9.996498788	2.04828211	-0.740217338
15.1812448	4.842280168	-0.444542599
18.89495725	3.821507713	-0.693399062
15.24348044	3.665219929	-0.71001133
12.63315629	3.526728198	-0.721138829
10.6122389	3.381052038	-0.718884346
10.01544555	2.020167206	-0.741157899
15.21032817	4.800194307	-0.444960905
19.18102629	3.818149407	-0.703463962
15.33921792	3.638495227	-0.713947263
12.66412988	3.493529627	-0.722291643
10.63398317	3.352078503	-0.719657299
10.03235759	1.991566923	-0.741953799
15.24883805	4.760955108	-0.44565807
19.18970719	3.758708414	-0.703356077
15.37365268	3.596879939	-0.715033081
12.74318622	3.473302831	-0.726189429
10.6775603	3.329836423	-0.721911665
10.03744068	1.96058761	-0.741881439
15.31876808	4.731259272	-0.447275502
19.36110157	3.730638333	-0.709215333
15.39629663	3.552392507	-0.71557596
12.76535248	3.437306212	-0.72684818
10.7077511	3.303240049	-0.723264274
10.05907999	1.932795155	-0.743039021
15.60758201	4.768058797	-0.455279005
19.37343781	3.671407924	-0.709251275
15.53570221	3.534392506	-0.72154775
12.778732	3.39889668	-0.727012867
10.73024327	3.274159769	-0.7241016
10.05320241	1.899702921	-0.74217082
15.65562791	4.730271867	-0.456255061
19.3806809	3.611221483	-0.709107449
15.54452253	3.48627578	-0.721457269
12.80744891	3.36449605	-0.728055949
10.75170206	3.244684125	-0.724874494
10.08545888	1.87377018	-0.744124302
15.79553403	4.719708927	-0.4599082
19.5165093	3.574611081	-0.713672628
15.57270288	3.442450661	-0.722271588
12.91919312	3.351514345	-0.733820195
10.77499325	3.215678571	-0.725776252
10.11176486	1.846582305	-0.745643625
15.82336092	4.675191777	-0.46029864
19.6808177	3.542334906	-0.719280174
15.62906662	3.404651873	-0.724397924
12.908135	3.30641229	-0.732612485
10.78863651	3.183735867	-0.726033922
10.12621805	1.817136621	-0.746294806
15.98347524	4.669230168	-0.464537424
19.73390808	3.489420754	-0.7208259
15.84455231	3.400710018	-0.733898547
12.92693017	3.268998154	-0.733106548
10.80122731	3.151460489	-0.726227161
10.16022962	1.791082687	-0.748392949
16.04574202	4.634039311	-0.465931756
19.8055679	3.439463001	-0.723054519
15.8607758	3.35332335	-0.734169987
12.98727447	3.241898352	-0.735961253
10.83002144	3.123839199	-0.727515336
10.17845259	1.762114927	-0.74933351
16.15984999	4.613328013	-0.468831969
19.91848124	3.396152837	-0.726792922
15.89739404	3.310145772	-0.735391464
13.09217009	3.225446185	-0.741341228
10.85490972	3.094976616	-0.728545901
10.21625875	1.736394551	-0.751721093
16.17873684	4.565085949	-0.468971414
20.02441507	3.351027591	-0.730279675
15.96325713	3.27279377	-0.7379702
13.08939152	3.182198494	-0.740627582
10.87395905	3.064366336	-0.729189989
10.22252161	1.705207471	-0.751793453
21.26894272	5.930981157	-0.615990323
20.0326292	3.289253809	-0.730207791
16.24936506	3.279536607	-0.750728157
13.08938284	3.139696907	-0.740078563
10.89869078	3.035274923	-0.730220613
10.2464069	1.676897742	-0.753168115
21.30631258	5.871012049	-0.616548044
20.14424971	3.244145236	-0.733910253
16.28286703	3.234340001	-0.751813975
13.17377189	3.117228058	-0.744305725
10.92527018	3.006589915	-0.731379983
10.24362502	1.644189773	-0.752589294
21.37245044	5.818747098	-0.617942376
20.21135983	3.19136863	-0.735995104
16.30741919	3.187243949	-0.752492573
13.19591408	3.079747029	-0.745019371
10.94888692	2.976984984	-0.732346114
10.28211957	1.618026498	-0.755049178
21.49059353	5.78015153	-0.620842618
20.2151302	3.128428939	-0.735779454
16.39658226	3.152476077	-0.756157067
13.22768022	3.044398973	-0.746282036
10.9724249	2.947263361	-0.733312305
10.28802082	1.586625862	-0.755121538
21.46571734	5.702898664	-0.619615597
20.34715399	3.084971123	-0.740236749
16.48666607	3.117376592	-0.75986686
13.27882926	3.013304148	-0.748642678
10.98913213	2.915633803	-0.733827588
10.2938262	1.555204221	-0.755193898
21.52758874	5.648685979	-0.620898408
20.38024691	3.026054934	-0.741099467
16.50008156	3.06751187	-0.76004782
13.34062935	2.984321783	-0.751607115
11.00478309	2.883676542	-0.734278438
10.30446904	1.524491611	-0.755627999
21.55739706	5.585873415	-0.621260924
20.49030847	2.978176777	-0.744765928
16.61751188	3.036629337	-0.76502433
13.3643487	2.946604069	-0.752430613
11.03386601	2.85515048	-0.735631046
10.31699488	1.494014288	-0.75620682
21.76133624	5.567528653	-0.626643044
20.46274095	2.910093089	-0.74343591
16.68967839	2.996933201	-0.767919746
13.38601044	2.908344971	-0.75314426
11.04547421	2.822026867	-0.735824284
10.34325502	1.465433307	-0.757798502
21.79866797	5.505880277	-0.62722866
20.51809492	2.853771264	-0.745125403
16.74306463	2.953525138	-0.769955543
13.4095151	2.8703985	-0.753967757
11.05795067	2.789102685	-0.736081954
10.35066623	1.434104393	-0.758015582
21.87462297	5.453727982	-0.628929776
20.59111995	2.799560354	-0.747461905
16.73334572	2.898904256	-0.769095984
13.46417768	2.838927297	-0.756547923
11.06451857	2.754682055	-0.73595309
10.35798252	1.402743726	-0.758232603
21.86698407	5.380620939	-0.628232581
20.58376118	2.734268892	-0.74688678
16.89776341	2.874018939	-0.776244071
13.49628725	2.802478444	-0.757865483
11.0758257	2.721438122	-0.736146328
10.3889332	1.374491388	-0.760186085
21.95430007	5.330726195	-0.630268318
20.59403533	2.671362993	-0.746958663
16.92423732	2.82512463	-0.777058389
13.53221289	2.766659539	-0.759402628
11.10254938	2.691912666	-0.737370131
10.40101492	1.343634395	-0.760764906
22.01721292	5.274524656	-0.631606919
20.78455915	2.631263443	-0.753572693
16.98113101	2.781099779	-0.779275205
13.58077132	2.733207225	-0.761653478
11.12337215	2.660856173	-0.738207456
10.40904588	1.312217179	-0.761054286
22.10236111	5.223274921	-0.633586866
20.87088781	2.577160079	-0.756412437
17.08920407	2.744990891	-0.783844557
13.60672239	2.695021145	-0.762641603
11.13925339	2.628551175	-0.738722739
10.40708373	1.279546179	-0.760620186
22.21563261	5.178132366	-0.636375529
20.84198541	2.508698129	-0.755082478
17.22188332	2.712130201	-0.789544907
13.62178769	2.654600644	-0.763025875
11.15018166	2.59504249	-0.738915977
10.44363998	1.251527966	-0.763007769
22.26064149	5.116668951	-0.63721214
20.91509133	2.452425257	-0.757454862
17.2232125	2.658214749	-0.789228227
13.63280888	2.613360967	-0.763190621
11.1629538	2.561938239	-0.739238021
10.46129961	1.221100345	-0.764020631
22.29865749	5.053432015	-0.637853545
20.91358125	2.387227113	-0.757131388
17.34290168	2.622238363	-0.794340458
13.72416517	2.587246593	-0.767856891
11.17465444	2.528559647	-0.739495692
10.46796955	1.189337506	-0.764237711
22.28576392	4.978676436	-0.637044829
21.13534872	2.346876638	-0.764895727
17.33011354	2.565946303	-0.79339036
13.76934594	2.552043963	-0.769943053
11.21644869	2.50186829	-0.741750058
10.50031761	1.160393648	-0.766335854
22.55670618	4.966597597	-0.644351167
20.9685716	2.263255728	-0.758605172
17.41600729	2.52408545	-0.796964433
13.85373174	2.523746429	-0.774225051
11.20165423	2.462516739	-0.740268585
10.50382891	1.128173716	-0.766335855
22.42725729	4.866002345	-0.640223903
21.17419807	2.219753425	-0.765794386
17.52554402	2.485087729	-0.801624206
13.86042689	2.481056058	-0.774170155
11.2540208	2.437857557	-0.743231473
10.49533676	1.09470152	-0.765467653
22.52028292	4.813889814	-0.642454845
21.20079267	2.156804184	-0.766513278
17.52813902	2.430622325	-0.801398006
13.92894441	2.449242115	-0.777573819
11.28194131	2.407693109	-0.74458408
10.5105534	1.06370223	-0.766335854
22.46158417	4.729329286	-0.640363318
21.22720175	2.093712749	-0.76723223
17.62361567	2.388777321	-0.805424478
13.98165331	2.41431276	-0.780099148
11.30782996	2.376969629	-0.745807883
10.53361923	1.033398905	-0.767782876
22.66489355	4.699565741	-0.645745498
21.25839587	2.030954998	-0.768130889
17.73781816	2.34886084	-0.81031051
14.01852783	2.376412712	-0.781746084
11.32777287	2.344896037	-0.746645209
10.54170519	1.001548979	-0.768144617
22.62044164	4.618011773	-0.644072277
21.39787157	1.978052176	-0.772947659
17.70035731	2.288666327	-0.808274653
14.04052738	2.335851196	-0.782569523
11.37304867	2.317904143	-0.749157246
10.57055118	0.971576255	-0.77002574
22.74230428	4.570255347	-0.64713983
21.35605901	1.908126158	-0.771222224
17.83911398	2.250984671	-0.814291683
14.03383131	2.290512717	-0.78180098
11.39380497	2.285749338	-0.750059005
10.59434506	0.940994738	-0.771545121
22.83957113	4.516945955	-0.649510187
21.40064502	1.845947084	-0.772624125
17.87171475	2.199416977	-0.81546798
14.05952531	2.250445185	-0.782844061
11.42426056	2.255421575	-0.751604852
22.85037735	4.446280919	-0.649426562
21.44604306	1.783595275	-0.774061968
17.89821531	2.146956578	-0.816372778
14.17486991	2.224327508	-0.788882787
11.43406477	2.220932723	-0.75179809
22.91496456	4.385927756	-0.650876624
21.43149072	1.716195905	-0.773343017
17.92654833	2.094585994	-0.817368057
14.20136493	2.183864403	-0.789980764
11.45062714	2.187715632	-0.752442178
22.96269601	4.32207678	-0.651852709
21.58910471	1.662174195	-0.778842797
17.93785203	2.04014276	-0.817594257
14.25539105	2.147424348	-0.792615885
11.46611134	2.154233679	-0.753021833
22.97977775	4.252335218	-0.65196423
21.45955732	1.585988249	-0.773990085
18.09594287	2.001906902	-0.824516144
14.30043687	2.109361592	-0.794756884
11.48149869	2.120677363	-0.753601548
23.07434501	4.196660611	-0.654278857
21.72450254	1.53857023	-0.783371975
18.13477814	1.949904081	-0.826009121
14.34044104	2.070329627	-0.796623404
11.51544307	2.090433413	-0.755405065
23.1195839	4.131652646	-0.655199093
21.64935364	1.466509844	-0.780496289
18.18041641	1.898408166	-0.827818718
