x	y	z
-2.874982619	-11.41156046	2.065301057
-2.444537071	-11.46855884	1.942520306
-0.61721932	-3.517080017	0.556942131
-3.338550847	-11.45286321	1.762239913
-2.895381206	-11.4764624	1.631652618
-0.748714647	-3.503600053	0.459082414
-0.615472771	-3.496373524	0.420939746
-3.324280824	-11.40391046	1.313922566
-2.893660305	-11.45446857	1.189014411
-0.738409166	-3.449189383	0.321882502
-3.318962173	-11.36720162	0.873557315
-2.885814148	-11.41669635	0.755726601
-3.386242082	-11.45644686	3.651473434
-2.90775658	-11.41143233	3.460526691
-2.478023367	-11.53010218	3.339191437
-2.034575573	-11.55826222	3.202232823
-3.37553909	-11.43418406	3.145484868
-2.929272693	-11.49587115	3.001412445
-2.480979078	-11.50182814	2.855932112
-2.041358199	-11.52140245	2.720720119
-3.369937413	-11.42769345	2.671223323
-2.92217209	-11.45714015	2.527275613
-2.477794029	-11.46667056	2.388470998
-0.711635444	-4.000608562	0.787418207
-3.370028485	-11.4280028	2.211241523
-2.914119549	-11.41891026	2.068239566
-2.483048635	-11.47643329	1.945135281
-0.628354202	-3.51711519	0.557250347
-3.375910003	-11.45015791	1.763408999
-2.933274905	-11.47808236	1.633154774
-2.48401444	-11.451883	1.501550336
-0.628648802	-3.508153595	0.422588173
-3.361781678	-11.40223765	1.314912121
-2.933968239	-11.46577944	1.191117263
-0.750890796	-3.455666089	0.322700396
-2.179107747	-7.379062547	0.567584202
-2.923549189	-11.41842319	0.756431068
-3.427673417	-11.46707793	3.658196361
-2.954260876	-11.44704921	3.474059806
-2.51728158	-11.54030674	3.344367741
-2.071217545	-11.55861356	3.204075325
-3.413368931	-11.43303945	3.148035947
-2.965496683	-11.49058513	3.002393538
-2.518540506	-11.50460484	2.858526584
-2.076522865	-11.51412659	2.72049362
-3.402750318	-11.40982052	2.669473329
-2.957308247	-11.44812156	2.527275614
-2.515270544	-11.46954358	2.390665404
-0.74664259	-4.123990826	0.812149903
-3.405073045	-11.41760956	2.211241523
-2.952342728	-11.42231319	2.070486662
-2.520573679	-11.47936144	1.946932958
-0.63949511	-3.517115021	0.557558562
-3.418089658	-11.46344708	1.767062287
-2.973688083	-11.48916889	1.636022592
-2.529585191	-11.49167428	1.507778187
-0.63887423	-3.503277455	0.422234954
-3.403847693	-11.41568288	1.317660611
-2.971377587	-11.465392	1.192018485
-0.762990183	-3.460153613	0.323336527
-2.200880057	-7.36947574	0.567363486
-2.962825002	-11.42582195	0.757519866
-3.464774506	-11.46291594	3.660242469
-2.991306967	-11.44535775	3.476315246
-2.552259037	-11.53065045	3.343822953
-2.10770741	-11.55789908	3.205654846
-3.450664626	-11.42991824	3.150076809
-2.99901949	-11.47486724	3.000676449
-2.553824375	-11.49682379	2.858526584
-2.113947745	-11.51919836	2.723211355
-3.441119961	-11.41053793	2.672098556
-2.992416849	-11.43899464	2.527275614
-2.550872429	-11.46368516	2.391064514
-0.798243019	-4.333123128	0.853813193
-3.44320862	-11.41746393	2.213248769
-2.991611957	-11.42940056	2.073425408
-2.553849209	-11.46290752	1.945462035
-0.651720356	-3.522909081	0.558791424
-3.456669832	-11.46427211	1.768815974
-3.009675847	-11.48286652	1.636432314
-2.566558871	-11.49160334	1.50879504
-0.651430691	-3.511064866	0.423412386
-3.438280662	-11.40328297	1.317440789
-3.006539003	-11.45622257	1.192018485
-0.775993896	-3.46848677	0.324336157
-2.168699125	-7.181294738	0.553385363
-3.000906452	-11.42826106	0.758288408
-3.500764476	-11.45497584	3.661119373
-3.028861234	-11.44540139	3.479134546
-2.589309123	-11.53027665	3.346002339
-2.148084454	-11.5779379	3.21302532
-3.488255405	-11.42760132	3.15237278
-3.038425865	-11.48154485	3.004846151
-2.589083989	-11.48893537	2.858526586
-2.150708162	-11.52031849	2.7250231
-3.468141993	-11.37379347	2.665972869
-3.030752085	-11.44204938	2.529992871
-2.587325293	-11.46154074	2.392261614
-2.144378445	-11.44323154	2.256098767
-3.479941266	-11.41248926	2.214343587
-3.030952348	-11.43635385	2.076363918
-2.588352421	-11.45213122	1.944971844
-0.661611859	-3.516038049	0.558020914
-3.493844932	-11.4602376	1.76983891
-3.047177451	-11.48219695	1.637661363
-2.604213306	-11.49431659	1.510193127
-0.663672633	-3.516856186	0.424354347
-3.473249286	-11.39268113	1.317440789
-3.041416343	-11.44598258	1.191918349
-0.792802779	-3.493282434	0.326880679
-2.182274935	-7.146946568	0.551251874
-3.036723047	-11.42189435	0.758480514
-3.535891526	-11.44418172	3.661119373
-3.065947355	-11.44346936	3.481390223
-2.631509822	-11.55229835	3.354720112
-2.185025901	-11.57887691	3.215131269
-3.529286008	-11.43624819	3.157730046
-3.078152544	-11.48902487	3.009261186
-2.624319343	-11.48093766	2.858526584
-2.187858646	-11.52323479	2.727288073
-3.512793574	-11.39480389	2.673411053
-3.067108082	-11.43741979	2.531038096
-2.625100971	-11.46501099	2.394655576
-2.179659627	-11.43756287	2.256289024
-3.516675748	-11.40739671	2.215438405
-3.063216594	-11.41653694	2.074462529
-2.625458758	-11.45279084	1.946442649
-0.674252706	-3.523696184	0.559561935
-3.533941544	-11.46553613	1.772323231
-3.085474533	-11.48427437	1.639300132
-2.643463782	-11.50367354	1.512480874
-0.672774747	-3.506026339	0.423294637
-3.513162165	-11.39811857	1.319309752
-3.078327274	-11.44332375	1.1926193
-0.815579111	-3.543239782	0.331787989
-2.19007118	-7.094478024	0.547720597
-3.073306994	-11.4183061	0.758864786
-3.573550986	-11.44149608	3.663750086
-3.104305792	-11.44604762	3.485055434
-2.66823888	-11.54979573	3.356354711
-2.222357173	-11.581593	3.217763647
-3.567810757	-11.436443	3.160791341
-3.112117001	-11.47484828	3.00803476
-2.661724614	-11.48229969	2.860885262
-2.223939603	-11.52029402	2.728193828
-3.54599384	-11.37838391	2.672098558
-3.103976325	-11.43456251	2.53250127
-2.661149376	-11.4607216	2.395453564
-2.215673016	-11.43564065	2.257240077
-3.552534211	-11.39937008	2.215985815
-3.104939979	-11.43179847	2.07895672
-2.661253152	-11.44756574	1.946932958
-3.577340663	-11.48108513	1.77641497
-3.120433168	-11.47379801	1.639163518
-2.678969019	-11.49647512	1.51260795
-3.551071314	-11.39677673	1.32040922
-3.114727405	-11.43862636	1.19311998
-0.829162102	-3.552358589	0.332878486
-2.11438128	-6.77546553	0.523589955
-3.107536211	-11.40593491	0.758672679
-1.939543464	-7.056724406	-0.87046588
-3.608636161	-11.43047852	3.663750085
-3.144486577	-11.45497389	3.490694035
-2.703660519	-11.54155522	3.35635471
-2.254923192	-11.55957021	3.213551746
-3.602299006	-11.42359856	3.160281124
-3.147306811	-11.46524682	3.008034761
-2.696716921	-11.47313354	2.860649465
-2.259085265	-11.51246035	2.727967329
-3.58821508	-11.39071853	2.67756788
-3.140596973	-11.43064417	2.533755354
-2.696971359	-11.45536448	2.39605223
-2.251884795	-11.43456855	2.258381624
-3.588672036	-11.39216875	2.216715616
-3.142086097	-11.429817	2.080339549
-2.701114561	-11.45951195	1.950364993
-0.698927339	-3.535001359	0.562027659
-3.615816378	-11.48043539	1.778022389
-3.156671285	-11.46799123	1.639709854
-2.716279877	-11.49689029	1.513751883
-0.695240307	-3.50670273	0.423883381
-3.590796676	-11.4009971	1.322168273
-3.152449456	-11.4386081	1.194121337
-0.836387323	-3.534292372	0.331424461
-2.133058113	-6.76228915	0.523074971
-3.144636834	-11.40404406	0.759184982
-1.961716188	-7.052654313	-0.870702094
-3.644559546	-11.42208677	3.664626989
-3.185008417	-11.46468539	3.496614919
-2.731053007	-11.49950542	3.346547125
-2.289626417	-11.5488126	3.212498889
-3.644669548	-11.43552426	3.16665882
-3.180650196	-11.44899862	3.006317908
-2.731227695	-11.46196983	2.859941837
-2.293823018	-11.50261005	2.727288073
-3.629361227	-11.39918159	2.682161968
-3.177484775	-11.42755018	2.535218528
-2.732103433	-11.44703611	2.39605223
-2.294468342	-11.46515026	2.265801211
-3.630466522	-11.40265368	2.220912735
-3.178457478	-11.42486713	2.081203815
-2.735800466	-11.44925226	1.950038121
-0.71035311	-3.535746603	0.562490011
-3.651020696	-11.46928799	1.778022389
-3.193966443	-11.46588702	1.640802288
-2.7524631	-11.49236107	1.51426031
-0.705211008	-3.500659211	0.423412385
-3.62636062	-11.39182064	1.322388212
-3.189398929	-11.43559189	1.194822288
-0.846064887	-3.526867905	0.330970095
-2.143494911	-6.723407344	0.520573661
-3.181486775	-11.40107119	0.759633328
-1.9451409	-6.910870233	-0.853930539
-3.677823784	-11.40539075	3.662873182
-3.224580525	-11.47056156	3.501407848
-2.762492007	-11.47516954	3.341915842
-2.326190048	-11.54740806	3.214078175
-3.681218324	-11.42889085	3.167934361
-3.226779615	-11.4783841	3.016619261
-2.76637966	-11.45353687	2.859941838
-2.332002853	-11.50983759	2.730685298
-3.672087319	-11.41214445	2.687850159
-3.2127939	-11.41868875	2.535427619
-2.765596707	-11.43193417	2.394655577
-2.329632095	-11.45805652	2.26580121
-3.671756458	-11.41111623	2.224744599
-3.215361863	-11.42169911	2.082414026
-2.773467877	-11.45135163	1.951835797
-0.716257559	-3.509348067	0.558637345
-3.68800857	-11.46368372	1.778899292
-3.232890855	-11.46938317	1.642714167
-2.789580057	-11.49157352	1.515277046
-0.719332199	-3.515018307	0.425414059
-3.669511951	-11.40618887	1.325356644
-3.230412862	-11.44681921	1.197025275
-0.855940069	-3.52038489	0.330606595
-2.164723672	-6.718697986	0.520720766
-3.216449776	-11.39125707	0.759633328
-2.723951986	-8.388131911	-0.965251218
-1.951375738	-6.852343746	-0.847434528
-3.712797895	-11.39405375	3.662873182
-3.262906308	-11.47168878	3.504791009
-2.792666757	-11.44607614	3.33592224
-2.368375621	-11.5732971	3.223291383
-3.718957702	-11.42581786	3.170230331
-3.255879407	-11.4469837	3.010978038
-2.802660858	-11.4497153	2.861121293
-2.363180369	-11.48259496	2.725929088
-3.71884954	-11.43701429	2.696382441
-3.248078606	-11.40971897	2.535636476
-2.803922811	-11.4367196	2.397448651
-2.362391198	-11.43931787	2.263518116
-3.712828667	-11.41849864	2.228394073
-3.254974819	-11.42788416	2.085352536
-2.810703604	-11.45141244	1.953306721
-0.729026297	-3.516808959	0.560178365
-3.723161286	-11.45231487	1.778899292
-3.270508394	-11.46798451	1.643943215
-2.825770372	-11.48681337	1.515785473
-0.730314772	-3.513767127	0.425531808
-3.710019648	-11.41189145	1.327335636
-3.268794318	-11.44833566	1.198226905
-2.817250733	-11.43411336	1.074607687
-2.16340491	-6.644696467	0.515497373
-3.250286151	-11.37749705	0.759377147
-2.815581044	-11.41018761	0.642661301
-2.775087524	-8.457185423	-0.974172602
-1.964417331	-6.818653242	-0.844009347
-3.752222985	-11.39623447	3.667257699
-3.30153454	-11.47361076	3.508456219
-2.827769702	-11.43745468	3.335922241
-2.407404567	-11.58297884	3.228029714
-3.753692001	-11.41343639	3.169975224
-3.289910547	-11.43321424	3.009996945
-2.840816114	-11.45332418	2.864187594
-2.400190832	-11.48387141	2.72796733
-3.757575102	-11.436676	2.69900767
-3.283879864	-11.40251959	2.536263517
-2.844667042	-11.45088672	2.402236809
-2.397475399	-11.43201609	2.263518115
-3.756435931	-11.4332085	2.233503384
-3.293292353	-11.42920204	2.087426779
-2.845822744	-11.44273514	1.95330672
-0.733706553	-3.485549894	0.55555519
-3.762910187	-11.45493584	1.781091311
-3.306500067	-11.46075261	1.644352938
-2.858839171	-11.46942889	1.514641543
-0.738425637	-3.498878586	0.42400113
-3.750907104	-11.4183974	1.329424541
-3.308871794	-11.45545915	1.200029349
-2.86968406	-11.49498323	1.081150845
-2.152614688	-6.543293886	0.508140491
-2.171646568	-7.51440032	0.501981761
-2.848878234	-11.39471534	0.642279058
-2.804461842	-8.459010998	-0.975369404
-1.986438636	-6.81640768	-0.844481832
-3.797733655	-11.41642947	3.677488478
-3.339669141	-11.47356089	3.511557567
-2.864950074	-11.43712483	3.338374135
-2.441136368	-11.56704335	3.22566055
-3.793873633	-11.41746514	3.174312057
-3.326597331	-11.42865191	3.011468701
-2.878783114	-11.45586533	2.867018101
-2.436422662	-11.4812172	2.729099816
-3.798485719	-11.44268955	2.703164261
-3.320487838	-11.39802424	2.537517835
-2.881219496	-11.44780703	2.403433908
-2.436421789	-11.44285168	2.267132781
-3.793972778	-11.42909509	2.23496322
-3.330270359	-11.42566324	2.088636752
-2.881397359	-11.43586354	1.953633591
-0.740060317	-3.462991611	0.552318955
-3.801775233	-11.45460461	1.782844881
-3.346085808	-11.46576914	1.646537924
-2.899841686	-11.48368487	1.517691988
-0.749780715	-3.499509605	0.424354347
-3.788738469	-11.41532598	1.330413979
-3.345675222	-11.45098446	1.200630164
-2.905669229	-11.48902097	1.081423476
-2.140088847	-7.32091974	0.489493097
-2.886520224	-11.39656889	0.642879693
-2.830084851	-8.449425283	-0.975260568
-2.0090261	-6.815995948	-0.845190471
-3.828171214	-11.3911269	3.67310396
-3.377021629	-11.47062364	3.513813243
-2.903575118	-11.44227134	3.342460632
-2.480856332	-11.57930934	3.231188522
-3.833807505	-11.42043851	3.178393784
-3.367394118	-11.43792204	3.01661926
-2.917511712	-11.46110481	2.870555994
-2.47368618	-11.48321064	2.731364556
-3.836055573	-11.43838279	2.70491449
-3.359586721	-11.40185485	2.540653042
-2.918505905	-11.44745999	2.40522944
-2.473797766	-11.44587804	2.269225616
-3.830269568	-11.42113016	2.235693256
-3.366700867	-11.42011638	2.089501021
-2.918908276	-11.43652923	1.955267833
-0.760106572	-3.504156827	0.559253777
-3.836899455	-11.44288687	1.782844881
-3.384050937	-11.46495148	1.647903586
-2.935551174	-11.47665619	1.517946143
-0.762623702	-3.506896631	0.425531807
-3.826270344	-11.41118683	1.331293504
-3.382764428	-11.44734558	1.201331115
-2.943621701	-11.49066466	1.082423047
-2.160341739	-6.433530343	0.500636445
-2.149523776	-7.270297588	0.486547018
-2.929410871	-11.41860928	0.644626944
-2.854082285	-8.435052502	-0.974607776
-2.029644146	-6.808848807	-0.845072336
-3.873553041	-11.41011806	3.683042202
-3.417398843	-11.47768029	3.519170032
-2.938665939	-11.43330956	3.342460632
-2.516779525	-11.57352839	3.231714949
-3.872553056	-11.41961088	3.181455078
-3.401639313	-11.4247497	3.015883499
-2.953387976	-11.45492345	2.871263621
-2.509528535	-11.47842194	2.732044048
-3.874261014	-11.43580252	2.70710222
-3.403767404	-11.4224209	2.54755073
-2.957287534	-11.45268376	2.408221833
-2.512687519	-11.45549564	2.272649786
-3.866868403	-11.41398194	2.236605684
-3.402565527	-11.41256528	2.090019581
-2.956203293	-11.4361167	1.956738755
-0.76341906	-3.468035016	0.553860033
-3.876113712	-11.44324208	1.7847446
-3.422892644	-11.46685504	1.649678851
-2.97124456	-11.46951633	1.518200298
-0.775733061	-3.51520723	0.426827016
-3.861898899	-11.40127737	1.331513445
-3.425560581	-11.46265278	1.204034899
-2.979861242	-11.48543563	1.082786517
-2.197369119	-6.477871328	0.504609212
-2.15495177	-7.207257562	0.482768411
-2.967693235	-11.42213163	0.645336775
-2.878982826	-8.423435261	-0.974281382
-2.053676502	-6.81304792	-0.846371538
-3.910401821	-11.40360735	3.684796007
-3.454532042	-11.47357262	3.52114366
-2.984635899	-11.46614101	3.354720112
-2.554145683	-11.57423183	3.23408388
-3.908509786	-11.41042082	3.182220403
-3.441984361	-11.43189767	3.020543631
-2.997846456	-11.48153837	2.880226728
-2.544942983	-11.47161947	2.732270545
-3.917541398	-11.44786628	2.71279041
-3.443027046	-11.425969	2.55068617
-2.998607478	-11.46725774	2.413209549
-2.55165982	-11.46498204	2.276074192
-3.906006122	-11.41415735	2.238977711
-3.440121685	-11.41056018	2.091575263
-2.994273039	-11.43844639	1.958699868
-2.564677286	-11.48282576	1.835104312
-3.913444439	-11.4378489	1.785767536
-3.459773999	-11.46198981	1.650498294
-3.007425383	-11.46418409	1.518708724
-0.782174513	-3.49342982	0.424472097
-3.897824731	-11.39219702	1.331843297
-3.456106237	-11.43685034	1.202432726
-3.015843167	-11.47912841	1.083059148
-3.959921148	-11.55722017	0.901219235
-2.156836317	-7.133745634	0.478285278
-3.006278512	-11.42649266	0.646101205
-2.901243812	-8.404227146	-0.97308464
-2.075147939	-6.808615236	-0.846607752
-3.947873077	-11.39878686	3.687134419
-3.483010084	-11.44089226	3.514377103
-3.019554309	-11.45600026	3.354447602
-2.591540025	-11.57481359	3.236453043
-3.943498025	-11.39837579	3.182220402
-3.475064237	-11.41479214	3.018826778
-3.028834636	-11.45631575	2.876217004
-2.580767093	-11.46660839	2.732950037
-3.957107188	-11.44870469	2.715853136
-3.483480612	-11.43312618	2.55465751
-3.03277116	-11.45421465	2.41241156
-2.587686762	-11.46093048	2.276835224
-3.942933199	-11.40769649	2.240072531
-3.483728592	-11.4282164	2.096761104
-3.03010987	-11.43206656	1.959190175
-2.602077381	-11.48454012	1.83664545
-3.950778715	-11.43233402	1.786790471
-3.495500862	-11.4532168	1.650771404
-3.044110582	-11.46065565	1.519471307
-0.794868021	-3.499728997	0.425531807
-3.91912213	-11.34072909	1.327225607
-3.496992512	-11.44522417	1.204435442
-3.051814482	-11.47270906	1.08333178
-2.174780139	-6.284258729	0.490557537
-2.109569847	-6.900913748	0.463106687
-3.044918739	-11.43072346	0.646865634
-2.920141639	-8.375574217	-0.970799874
-2.105676352	-6.833532745	-0.850505417
-3.984403975	-11.39113429	3.688596159
-3.518940532	-11.43290382	3.515222776
-3.058159734	-11.45969768	3.358261821
-2.628961847	-11.57527556	3.238822208
-3.982914145	-11.39900257	3.185791912
-3.512349498	-11.4114895	3.020788963
-3.066982876	-11.45823412	2.879047508
-2.617451484	-11.4652846	2.734535286
-3.994463765	-11.44295928	2.717384498
-3.525161956	-11.44388003	2.559464981
-3.073986904	-11.46757155	2.417199719
-2.623712817	-11.45676487	2.277596254
-3.981477206	-11.40575641	2.242079775
-3.521384263	-11.42594597	2.098316785
-3.068236834	-11.43415098	1.961151288
-2.638405615	-11.48131772	1.8374159
-3.98909406	-11.42949933	1.788251857
-3.529454058	-11.43865252	1.650225186
-3.079257145	-11.45126252	1.519471307
-2.633919561	-11.43436306	1.391279461
-2.256983119	-6.466678332	0.75761364
-3.531795947	-11.43349111	1.204335307
-3.086997713	-11.46329271	1.08333178
-2.085058455	-6.746624012	0.453179772
-3.082833111	-11.43193342	0.647466212
-2.13165186	-6.843157518	-0.852513259
-4.02219965	-11.38697248	3.691226871
-3.558560428	-11.43671172	3.519733892
-3.099576699	-11.47348342	3.365072488
-2.666627396	-11.5765571	3.241454588
-4.022049856	-11.39858351	3.189108315
-3.552527419	-11.41732246	3.025203997
-3.101613603	-11.44689488	2.878575679
-2.652614113	-11.45719964	2.734535284
-4.031822699	-11.43709215	2.718916097
-3.561999046	-11.43861346	2.560719064
-3.110694273	-11.46376174	2.418396585
-2.665733981	-11.4783069	2.283493777
-4.022334808	-11.41017865	2.245364466
-3.559351718	-11.42449226	2.10004532
-3.104595087	-11.42944373	1.961968466
-2.675186919	-11.47990485	1.838494743
-4.025784804	-11.42187184	1.788982491
-3.563940769	-11.42587866	1.649951959
-3.113592975	-11.4388905	1.519090075
-2.674182455	-11.44847008	1.393987539
-2.293332327	-6.506594601	0.763110798
-3.568339539	-11.42735079	1.204835986
-3.122152218	-11.45376805	1.08333178
-2.178778098	-6.172991216	0.482906357
-2.106639754	-6.74305288	0.453371907
-3.119994683	-11.43012732	0.647903053
-2.150250632	-6.829008054	-0.851568347
-4.06354106	-11.39259379	3.697072896
-3.59766121	-11.43855348	3.523681149
-3.133747048	-11.46020711	3.363982676
-2.699497938	-11.55704797	3.23829578
-4.061220353	-11.39803126	3.192424719
-3.591319818	-11.41839217	3.028392372
-3.138773834	-11.44482286	2.880462761
-2.696878684	-11.48788575	2.74382121
-4.064928711	-11.41915375	2.717603366
-3.596194626	-11.42483286	2.560092022
-3.146628336	-11.45699879	2.418995251
-2.70161141	-11.47294141	2.284064551
-4.061608341	-11.40982619	2.247736495
-3.595864043	-11.4182162	2.100909588
-3.142260722	-11.42937839	1.963602708
-2.710394259	-11.47164309	1.838494742
-4.06379304	-11.41785532	1.790297727
-3.601063375	-11.4215042	1.650907898
-3.143930412	-11.41207071	1.51680221
-2.714785414	-11.46340339	1.396813514
-2.296286235	-6.451771803	0.757503729
-3.605477924	-11.42299136	1.205536937
-3.161514704	-11.45949495	1.084785775
-2.16522967	-6.075155549	0.475770162
-2.132425984	-6.752735827	0.454460676
-3.155047335	-11.4205015	0.647903053
-2.163060791	-6.796830711	-0.848379439
-4.101714339	-11.38907063	3.699995907
-3.637387776	-11.44209217	3.528192032
-3.176077631	-11.47650459	3.371610879
-2.724270661	-11.5036504	3.225660548
-4.104680459	-11.40917331	3.199057523
-3.633382776	-11.42949298	3.034278924
-3.175170773	-11.43982153	2.881641981
-2.729855163	-11.47008172	2.741556234
-4.105223979	-11.42132106	2.721103827
-3.63597224	-11.4286565	2.56343632
-3.187273914	-11.46711721	2.423184743
-2.740216661	-11.47892218	2.286918183
-4.100584798	-11.40841551	2.249926369
-3.634163733	-11.41745465	2.102810977
-3.180748553	-11.43204001	1.965727374
-2.746726781	-11.46807858	1.839265194
-4.099472395	-11.40719587	1.790590028
-3.63729019	-11.41417849	1.651454234
-3.183722236	-11.41957025	1.519090074
-2.743915039	-11.42991526	1.393752101
-2.28547957	-6.359577738	0.747498969
-3.641110885	-11.4137724	1.205737209
-3.195585867	-11.44590558	1.084422307
-2.745794265	-11.41316763	0.959949815
-2.109903148	-5.862979473	0.459658579
-2.136141037	-6.692922534	0.450874175
-3.189263517	-11.40788345	0.64773926
-2.482468128	-7.718457292	-0.964362806
-4.136309414	-11.37553421	3.699703605
-3.681278726	-11.45828168	3.536650403
-3.219315761	-11.49542885	3.380056143
-2.757974146	-11.48867196	3.223817813
-4.13306153	-11.37835019	3.193955365
-3.671989319	-11.42936844	3.037222202
-3.21235486	-11.43751087	2.883529063
-2.76708797	-11.47017473	2.743594712
-4.144571765	-11.42059717	2.723947686
-3.678201693	-11.43979137	2.568452886
-3.223766134	-11.46200106	2.424182286
-2.77796012	-11.480958	2.289010784
-4.144621916	-11.42073523	2.254853051
-3.674302523	-11.42219046	2.105749721
-3.216875937	-11.42602643	1.966381
-2.781431229	-11.45767758	1.838957037
-4.141873239	-11.41502376	1.793804983
-3.676542719	-11.41616675	1.653366113
-3.219280597	-11.41165785	1.519344229
-2.781081366	-11.43012657	1.394811752
-2.280570425	-6.285264002	0.739583057
-3.649854944	-11.32110732	1.197125411
-3.230686418	-11.43604739	1.084422306
-2.785990516	-11.42599285	0.961742901
-2.147293083	-5.909907065	0.463852005
-2.145329663	-6.651196537	0.448504533
-2.119420142	-7.492367493	0.425783573
-2.620009723	-8.06116675	-1.008181339
-1.980461093	-6.944641328	-0.928812686
-4.177121481	-11.37895061	3.704965028
-3.715526063	-11.44419619	3.535804495
-3.254567948	-11.48549719	3.38005614
-2.788190124	-11.45953374	3.218026861
-4.177271677	-11.39103499	3.201098386
-3.709731297	-11.42634794	3.03942972
-3.251679604	-11.44255819	2.887302991
-2.801570944	-11.4587935	2.742915221
-4.184625732	-11.42157116	2.727229279
-3.720231534	-11.44984417	2.573260358
-3.259720383	-11.45488447	2.424780718
-2.814105541	-11.47619546	2.289771816
-4.179979163	-11.4088892	2.255035679
-3.710850446	-11.41554834	2.10661399
-3.254077534	-11.42369348	1.967688486
-2.818221929	-11.4558057	1.840035761
-4.173471817	-11.39297434	1.792343597
-3.713389083	-11.41048593	1.654185439
-3.259448211	-11.41984958	1.521759052
-2.816135398	-11.42154064	1.394811752
-2.284799864	-6.237172862	0.734745603
-2.297039094	-7.050804093	0.746313369
-3.270682565	-11.44331758	1.086058096
-2.816728557	-11.39997532	0.960275852
-2.153737007	-5.871457334	0.461350665
-2.09321848	-7.313995456	0.416009872
-2.638532009	-8.034222408	-1.005819207
-1.99213497	-6.905178724	-0.924347821
-4.217328902	-11.38042947	3.709642084
-3.753310521	-11.44094858	3.538341986
-3.290585115	-11.4782333	3.38087344
-2.826336702	-11.46310311	3.221448884
-4.210856454	-11.37453863	3.200077955
-3.750208835	-11.43149314	3.043844753
-3.291334216	-11.448406	2.891312717
-2.836010135	-11.44730776	2.742235727
-4.226078263	-11.42606741	2.731386105
-3.75808709	-11.44673854	2.575141481
-3.29864332	-11.45801264	2.427573791
-2.852141476	-11.47894064	2.292054674
-4.227922053	-11.43105345	2.261969608
-3.753539504	-11.42750325	2.110935327
-3.292661149	-11.4259805	1.969813035
-2.853832554	-11.44902375	1.840343919
-4.207718754	-11.37826094	1.792051414
-3.749925697	-11.40374501	1.65486827
-3.295569288	-11.41360785	1.522267479
-2.853088531	-11.42055495	1.395753744
-2.292547894	-6.199370323	0.731117527
-2.282882962	-6.935038925	0.734797693
-3.303562063	-11.42557616	1.085331039
-2.858225095	-11.41738472	0.962476455
-2.095099339	-7.236564525	0.411969362
-2.662855456	-8.025147441	-1.005701071
-2.00719764	-6.878088052	-0.921541395
-4.260599997	-11.38982985	3.716949613
-3.78899684	-11.43120107	3.538905846
-3.329268413	-11.48009739	3.384415148
-2.862660894	-11.45905775	3.222764955
-4.241333201	-11.34979141	3.196761551
-3.788922743	-11.43097673	3.046788031
-3.330512607	-11.45225146	2.894850848
-2.871353741	-11.43949786	2.742462225
-4.267597555	-11.43041714	2.735542696
-3.795958342	-11.44350929	2.577022842
-3.338438296	-11.46383245	2.430965532
-2.893096703	-11.49298534	2.296620627
-4.252655374	-11.39039571	2.256495516
-3.789821976	-11.41967359	2.111626742
-3.328528369	-11.41866632	1.970303343
-2.893056748	-11.45649963	1.84296378
-4.24606697	-11.37456666	1.793512683
-3.78895446	-11.40440783	1.656643535
-3.332516641	-11.41010833	1.523157256
-2.891767439	-11.42618816	1.397519948
-2.297999963	-6.155992012	0.726829749
-2.288448539	-6.880796145	0.729790902
-3.346426923	-11.44215025	1.087875562
-2.89715969	-11.42401897	0.963780485
-2.119809942	-6.370770799	0.430892254
-2.108591811	-7.200396622	0.41027671
-2.691882387	-8.030121427	-1.007354623
-2.031097684	-6.881410445	-0.922817055
-4.297888208	-11.38296754	3.718995722
-3.826182045	-11.42589133	3.540879475
-3.366910677	-11.47813855	3.386867043
-2.898040088	-11.45115706	3.223028171
-4.288418668	-11.369295	3.205945436
-3.825821527	-11.42481491	3.048259553
-3.365631828	-11.44197909	2.894850847
-2.907156161	-11.43346694	2.743141718
-4.304021845	-11.42092271	2.736417929
-3.834156178	-11.44108148	2.579113056
-3.375254382	-11.45917652	2.432162396
-2.931738897	-11.49737353	2.299284002
-4.289314399	-11.38189526	2.257407707
-3.82671762	-11.41359525	2.112663862
-3.366055612	-11.41691721	1.971774147
-2.929660349	-11.45331382	1.843888369
-4.287919948	-11.38000034	1.796435455
-3.82613139	-11.39930416	1.657599475
-3.368349777	-11.40268482	1.523538489
-2.927055425	-11.4182243	1.397637726
-2.229261186	-5.916386991	0.699344139
-2.279759275	-6.7850856	0.720378136
-3.37756055	-11.41845964	1.086603359
-2.93492209	-11.42569547	0.964677058
-2.103450599	-7.101983272	0.405034958
-2.952941336	-11.47091779	0.535388162
-2.721920417	-8.037813761	-1.009362465
-2.059575763	-6.899856594	-0.926133755
-4.337217761	-11.38134598	3.722795639
-3.863370302	-11.42046081	3.542852867
-3.402656466	-11.4695997	3.38741183
-2.940344724	-11.47024762	3.230925308
-4.33772763	-11.39403744	3.216659966
-3.862097036	-11.4166965	3.049240644
-3.400442447	-11.43066853	2.894615051
-2.945377911	-11.43675571	2.746085948
-4.337999967	-11.40492837	2.735761563
-3.874569604	-11.44501122	2.582666211
-3.414590944	-11.46285417	2.435155025
-2.969453503	-11.49783011	2.301186344
-4.326660085	-11.37511463	2.258685152
-3.866771561	-11.41672786	2.115429754
-3.410368879	-11.43773528	1.977167412
-2.965280343	-11.44618498	1.844196643
-4.334417344	-11.39730572	1.80125783
-3.865539406	-11.40064579	1.659511352
-3.407007854	-11.40465254	1.525190731
-2.967312642	-11.42937533	1.400110366
-2.229382962	-5.862139422	0.69373707
-2.235008216	-6.584912333	0.699850238
-3.410863475	-11.40231967	1.086058096
-2.969208939	-11.41374438	0.964432501
-2.057616031	-6.869756938	0.39214897
-2.988875874	-11.46470355	0.535523643
-2.750745348	-8.04163932	-1.01089788
-2.083600584	-6.90300095	-0.927409414
-4.367995247	-11.35727523	3.719288025
-3.898079439	-11.40764632	3.542571054
-3.439764013	-11.46555777	3.389318939
-2.979400049	-11.476113	3.235136973
-4.379946507	-11.39963043	3.222017232
-3.897731643	-11.40662912	3.049731309
-3.439134434	-11.43227967	2.897681351
-2.984630215	-11.44368789	2.749936169
-4.370870891	-11.38610004	2.734448831
-3.912828407	-11.44232377	2.584756427
-3.452003387	-11.45983072	2.436751
-3.009185717	-11.50576198	2.304610749
-4.362594829	-11.36454062	2.25923256
-3.901779342	-11.4048109	2.115429754
-3.448291261	-11.436665	1.978801772
-3.000132023	-11.43607725	1.844042505
-4.373617239	-11.39503728	1.803011517
-3.905633566	-11.40372825	1.661696458
-3.440833351	-11.3903481	1.524682421
-3.002363625	-11.42021827	1.400110366
-2.20889228	-5.755055316	0.681863289
-3.447559256	-11.39752024	1.086603359
-3.004211871	-11.40458128	0.964432501
-2.078682591	-6.863411625	0.39214897
-3.021995288	-11.44775325	0.53516238
-2.777673641	-8.039732714	-1.011724599
-2.105637398	-6.899421813	-0.927792135
-4.404548192	-11.34827856	3.720749531
-3.930555034	-11.38837769	3.540315613
-3.472130519	-11.44574338	3.386594532
-3.017782901	-11.47904714	3.238558993
-4.42223979	-11.40507115	3.227374498
-3.933657319	-11.39736603	3.050467068
-3.475606185	-11.42632376	2.898860572
-3.02171445	-11.44201163	2.751747914
-4.41670989	-11.4008433	2.741230886
-3.951426212	-11.44043298	2.587055735
-3.48942934	-11.45668462	2.438347209
-3.04321412	-11.49173111	2.303659697
-4.399216237	-11.35568738	2.260144989
-3.942218988	-11.40861275	2.118368264
-3.484512925	-11.4298063	1.979455279
-3.034442372	-11.4239548	1.843580212
-4.408198986	-11.38064228	1.802865365
-3.940601227	-11.39169248	1.661696458
-3.476921128	-11.3835323	1.52519073
-3.039940534	-11.42054972	1.401287797
-2.257771418	-5.828886445	0.691428285
-2.255510932	-6.513722372	0.693741954
-3.484257594	-11.39260389	1.087148622
-3.039957119	-11.39819951	0.964677058
-2.108792545	-6.886599615	0.393841623
-3.060971338	-11.45290476	0.535839727
-2.80428887	-8.036798419	-1.012433297
-2.124162949	-6.884399447	-0.92664403
-4.441436358	-11.34005468	3.722503338
-3.970212712	-11.38985466	3.544544681
-3.503561625	-11.4230788	3.383053061
-3.055219341	-11.47812594	3.24092816
-4.470949881	-11.4265673	3.237323705
-3.96956294	-11.38799075	3.05120283
-3.514072948	-11.42675306	2.901691077
-3.059823039	-11.44397878	2.754465648
-4.454863729	-11.39541858	2.743199747
-3.988439216	-11.43379612	2.588309816
-3.527733793	-11.4562273	2.440541617
-3.083286309	-11.50035707	2.307274124
-4.43152849	-11.33572705	2.258867543
-3.978824364	-11.40111489	2.119232533
-3.521306246	-11.42471894	1.980435895
-3.070502595	-11.41840833	1.844196643
-4.450656213	-11.38641401	1.805934171
-3.978799199	-11.38890104	1.663062001
-3.518852715	-11.39555767	1.528241176
-3.075739197	-11.41404563	1.401641013
-2.255018418	-5.769165378	0.685161571
-2.279097013	-6.517102953	0.694843447
-3.516251624	-11.37234618	1.086239889
-3.076730552	-11.39555464	0.965247535
-2.94302202	-7.519653523	0.595687495
-2.114130607	-6.042671721	0.410846288
-2.101562743	-6.788527835	0.388599871
-3.094006601	-11.43574547	0.535478463
-2.827942206	-8.02534723	-1.012079006
-2.152066634	-6.899627538	-0.929578068
-4.507488858	-11.40553105	3.748518618
-4.014695001	-11.40477113	3.553002821
-3.544859607	-11.43249426	3.389046428
-3.092176429	-11.4752186	3.242770659
-4.504209519	-11.40830032	3.236048166
-4.005447795	-11.37850231	3.051938826
-3.554017828	-11.43169359	2.905701037
-3.096953994	-11.44205913	2.756277628
-4.491951859	-11.38714365	2.744512479
-4.026422808	-11.429807	2.590191175
-3.56723313	-11.45938477	2.443534246
-3.122154367	-11.50410823	2.309937735
-4.486129094	-11.37238193	2.268903772
-4.016402943	-11.39628576	2.120615361
-3.55780744	-11.41857148	1.981253192
-3.107595527	-11.41656061	1.845429504
-4.489198153	-11.38190835	1.807395557
-4.017346677	-11.38691678	1.664564276
-3.560890573	-11.40743179	1.531291503
-3.11204916	-11.4093463	1.402229788
-2.231498008	-5.657738349	0.672738057
-2.247724738	-6.364661153	0.679322397
-2.283141783	-7.304707454	0.698381439
-3.11772031	-11.40817468	0.96712216
-3.00783838	-7.61633281	0.604074345
-2.119695854	-6.773472365	0.388108431
-3.129076415	-11.42619882	0.535478463
-2.850220095	-8.010084573	-1.011252171
-2.176802875	-6.904344134	-0.931108895
-4.539625383	-11.38454189	3.746180208
-4.05737768	-11.41409654	3.559769378
-3.581931783	-11.42799214	3.390953538
-3.13066762	-11.47777713	3.24619268
-4.545272139	-11.40969841	3.240385001
-4.043260002	-11.3743815	3.054146108
-3.59548256	-11.44113201	2.910890217
-3.138476979	-11.45598896	2.761939593
-4.528670468	-11.37784195	2.745606343
-4.066386208	-11.4312208	2.593326381
-3.605902705	-11.45960339	2.445928209
-3.158213741	-11.497315	2.310508271
-4.531178685	-11.38414338	2.274013082
-4.055640423	-11.39597264	2.122862456
-3.594600631	-11.41324837	1.982233571
-3.147592532	-11.42507208	1.848357524
-4.528485903	-11.37911201	1.809149126
-4.049935112	-11.36800612	1.663608337
-3.603631468	-11.42104771	1.534596104
-3.14862342	-11.4054885	1.402936223
-2.227161739	-5.596379099	0.666251461
-2.145590297	-6.016606816	0.642872905
-2.235340336	-7.075462329	0.677116469
-3.152173956	-11.39663474	0.966959142
-2.975447468	-7.467175242	0.592965469
-2.120317233	-5.94311322	0.40495419
-2.108847456	-6.66697518	0.382375269
-2.134224597	-7.700560468	0.361184945
-2.87209529	-7.993826647	-1.010307318
-4.57774385	-11.37854574	3.748810918
-4.097238412	-11.41514056	3.563998447
-3.621043797	-11.42979033	3.39476752
-3.174594637	-11.49973662	3.255142674
-4.582418528	-11.40108229	3.241915646
-4.080429414	-11.3683098	3.055863194
-3.629683806	-11.42726871	2.91018259
-3.173088329	-11.44442841	2.761486596
-4.566464857	-11.37113838	2.747356573
-4.10672677	-11.43341695	2.596670679
-3.641934117	-11.45128794	2.446526875
-3.195312984	-11.49419285	2.311840077
-4.564251121	-11.36562696	2.273100656
-4.092249094	-11.38811154	2.12372696
-3.629898404	-11.40310672	1.982397125
-3.184221525	-11.42107174	1.849282111
-4.57111585	-11.38444419	1.812217932
-4.08982248	-11.36950922	1.66565671
-3.638051022	-11.40804791	1.534341949
-3.186004861	-11.40438246	1.403995992
-2.226914161	-5.546169126	0.661084156
-2.244920466	-7.030624349	0.673481421
-3.188735357	-11.39266929	0.967448139
-3.067534944	-7.630119391	0.606649266
-2.103142892	-6.57868069	0.377679526
-2.06315264	-7.356361251	0.34533598
-2.895929094	-7.983110887	-1.010071164
-4.616227605	-11.37330902	3.75173393
-4.136816838	-11.4151454	3.567945469
-3.659026836	-11.42779134	3.397491929
-3.211417858	-11.49551811	3.256721961
-4.631545482	-11.42191594	3.251864854
-4.117599767	-11.36211827	3.057580048
-3.668883672	-11.42903362	2.91348469
-3.211868085	-11.44776939	2.764657326
-4.609756741	-11.37787622	2.752388398
-4.141784918	-11.42076379	2.596670679
-3.680647203	-11.45125551	2.448920838
-3.232422378	-11.49095091	2.313171881
-4.596883946	-11.34610285	2.272005837
-4.126832152	-11.37457739	2.123553871
-3.673929395	-11.4200908	1.987299964
-3.221392107	-11.41885707	1.850514974
-4.612706811	-11.38687086	1.814848404
-4.126374858	-11.36156463	1.666339541
-3.673946098	-11.39966523	1.534723182
-3.227461015	-11.41748846	1.406821849
-2.243172816	-5.53746818	0.660864274
-2.243657854	-6.171645948	0.66089735
-2.211430709	-6.853110629	0.657123761
-3.225845263	-11.39050477	0.968100213
-3.076310671	-7.584629789	0.603780077
-2.073985237	-7.308672182	0.343394359
-2.920065921	-7.973255708	-1.009953027
-4.676827571	-11.42192849	3.772487552
-4.173796487	-11.40780631	3.569637286
-3.706214435	-11.45404528	3.408661602
-3.244833491	-11.47911295	3.25487946
-4.664002728	-11.40138905	3.2500791
-4.156103341	-11.35944709	3.060277994
-3.706029264	-11.42419374	2.915135738
-3.249634215	-11.4472312	2.7669223
-4.65202537	-11.38174478	2.756763855
-4.180165667	-11.41718614	2.598760894
-3.718788984	-11.44922932	2.450915924
-3.270885885	-11.49231084	2.31545474
-4.632415514	-11.33376691	2.272370856
-4.162725556	-11.36463704	2.124072666
-3.714133717	-11.42471563	1.990078257
-3.256409431	-11.40891994	1.850514974
-4.653233038	-11.38640157	1.817040424
-4.17519434	-11.3869847	1.671938681
-3.71197402	-11.39777173	1.535994191
-3.26657008	-11.42185443	1.408588053
-2.223302765	-5.440392964	0.6500899
-2.276979971	-6.203963809	0.665103055
-2.191075148	-6.719422921	0.644946412
-3.262697108	-11.3872611	0.96867069
-3.09125649	-7.554849936	0.602161572
-2.943825102	-7.962396671	-1.009716755
-4.71841894	-11.42343674	3.777748974
-4.21010521	-11.39854684	3.570765004
-3.742533429	-11.44627915	3.409751177
-3.280300847	-11.47003141	3.255142674
-4.700803992	-11.39149498	3.251354639
-4.194628847	-11.35664654	3.06297594
-3.742876784	-11.41831089	2.916550991
-3.289577963	-11.4540586	2.770998783
-4.681343145	-11.35388778	2.753482263
-4.215173737	-11.40430765	2.598760894
-3.760008697	-11.45638642	2.454906095
-3.308301449	-11.48976966	2.316976569
-4.679158517	-11.34858813	2.278209965
-4.22421701	-11.4238699	2.137555476
-3.753169267	-11.42545175	1.992202805
-3.294137241	-11.4083683	1.85205611
-4.687013026	-11.36932819	1.816601972
-4.21458008	-11.38619911	1.673713947
-3.751265041	-11.39952068	1.537773628
-3.30380437	-11.41941061	1.409529927
-2.234679669	-5.420681584	0.648550729
-2.204397518	-5.949705286	0.638567065
-2.210121553	-6.707939899	0.644491987
-3.300669664	-11.38772762	0.969567262
-3.091589686	-7.490019565	0.597747431
-2.96580903	-7.9468154	-1.008890038
-2.474769186	-7.449006644	-1.009562376
-4.7519723	-11.4053759	3.776579769
-4.24371456	-11.38198159	3.569637285
-3.778236289	-11.43656976	3.410296198
-3.31735168	-11.46640143	3.256985177
-4.737588611	-11.38148297	3.252630179
-4.240627339	-11.37369992	3.071070011
-3.784611832	-11.4270692	2.921740171
-3.32959433	-11.46074903	2.775075503
-4.728519948	-11.36920298	2.760701814
-4.252876421	-11.39865167	2.60043316
-3.797914351	-11.4531679	2.456701626
-3.344634256	-11.48333596	2.3177376
-4.725280265	-11.36141459	2.283684295
-4.2365127	-11.34995396	2.126146908
-3.789136802	-11.4166925	1.992693231
-3.333000077	-11.41148678	1.854213561
-4.72453052	-11.3612893	1.817625025
-4.251226399	-11.37785506	1.674396777
-3.789037056	-11.39642917	1.538917559
-3.340775359	-11.4158924	1.41035414
-2.239086946	-5.384432403	0.645032565
-2.230657213	-5.964348478	0.640870189
-3.343722599	-11.40528342	0.971930884
-3.799165269	-11.399638	0.657076089
-2.988075261	-7.932104239	-1.008181341
-2.498873334	-7.445140061	-1.010072593
-4.790645982	-11.39955956	3.779502781
-4.280641729	-11.37429536	3.571328864
-3.813609849	-11.42583741	3.410568474
-3.354140386	-11.46172467	3.258564696
-4.775852905	-11.37491784	3.254926148
-4.289501166	-11.39783656	3.081126267
-3.820268355	-11.41724742	2.922212
-3.365563685	-11.4532835	2.775754995
-4.765642696	-11.36004149	2.76201431
-4.29885605	-11.41483613	2.607121757
-3.835835935	-11.44982481	2.458497157
-3.379571511	-11.47207895	2.317547342
-4.764678657	-11.35774377	2.285873931
-4.282078765	-11.36547585	2.131505367
-3.825399463	-11.40875569	1.993346975
-3.36799448	-11.40120748	1.854213561
-4.761277503	-11.3513024	1.818355659
-4.288210339	-11.37032103	1.675216104
-3.827457058	-11.39509374	1.540315646
-3.380010525	-11.41987236	1.412120345
-2.26905156	-5.409617834	0.648880523
-2.220130376	-5.881146951	0.632659053
-2.237272036	-6.652720304	0.640493469
-3.375581226	-11.38446091	0.971034312
-3.01345525	-7.925683729	-1.008535748
-2.523295268	-7.44213502	-1.01071048
-4.830821748	-11.39713574	3.783595235
-4.31688035	-11.36469733	3.572456586
-3.85417969	-11.43049485	3.415472267
-3.386003037	-11.44027981	3.255405889
-4.825433074	-11.39493669	3.264875592
-4.334432504	-11.41090518	3.088239247
-3.858078711	-11.41375933	2.92433488
-3.400963371	-11.44383755	2.775981491
-4.809217585	-11.36603611	2.767046133
-4.334898402	-11.40433616	2.607748799
-3.87345827	-11.44542827	2.460093132
-3.415311916	-11.46353838	2.317927858
-4.80678078	-11.36027693	2.289341014
-4.317977921	-11.35504767	2.132023929
-3.856901346	-11.38668675	1.991549061
-3.401542797	-11.38608771	1.853442993
-4.798393146	-11.34210833	1.819232444
-4.324483797	-11.36081421	1.675762438
-3.863992328	-11.38799373	1.540951032
-3.41730846	-11.41705969	1.413062336
-2.270534038	-5.366930607	0.644592802
-2.225764278	-5.841765692	0.629154241
-2.179191362	-6.414805146	0.618228868
-3.415644951	-11.39123526	0.972501361
-2.145567933	-5.065384123	0.40580614
-3.038112381	-7.917328569	-1.008653767
-2.549007734	-7.442803427	-1.011858584
-4.871403825	-11.39545131	3.787979753
-4.363403398	-11.38185876	3.58204268
-3.892331926	-11.42772444	3.418196675
-3.420808872	-11.42891373	3.255142675
-4.875180672	-11.41475843	3.2748248
-4.375319796	-11.41294203	3.092408949
-3.890879376	-11.39543147	2.922683595
-3.432412139	-11.42122363	2.773037261
-4.849810392	-11.36469062	2.770327728
-4.367764555	-11.38550523	2.606494717
-3.909505097	-11.4362723	2.460691563
-3.447350312	-11.44266623	2.315835257
-4.850100808	-11.36537103	2.293355505
-4.360205203	-11.36105735	2.135654088
-3.893414043	-11.37946784	1.992366359
-3.430744422	-11.35668134	1.850360955
-4.84481481	-11.35463071	1.823616485
-4.367844034	-11.36968695	1.67903986
-3.904057364	-11.39109935	1.542984625
-3.452606946	-11.40747251	1.413180115
-2.297130651	-5.383708647	0.647451263
-2.186579214	-6.372295373	0.614775613
-2.237727264	-7.380479096	0.63067516
-2.111733147	-4.943221666	0.396536455
-2.574423823	-7.442447005	-1.012879135
-4.907098854	-11.38220863	3.788564355
-4.394493621	-11.35857518	3.578941329
-3.925495217	-11.41027065	3.416562078
-3.460327443	-11.43313867	3.259354339
-4.896025317	-11.36689058	3.265385809
-4.415560511	-11.41302703	3.096087986
-3.919802129	-11.36598602	2.918202041
-3.468851878	-11.41529937	2.774169513
-4.895454875	-11.37485438	2.776453416
-4.399849667	-11.36475585	2.604822686
-3.944572711	-11.42422419	2.460691563
-3.47986499	-11.42358354	2.314122935
-4.893109049	-11.36940306	2.297187605
-4.389704285	-11.33384996	2.13306105
-3.930885159	-11.37492911	1.99367361
-3.47480613	-11.37634093	1.855292286
-4.890576128	-11.36515738	1.827708225
-4.406643833	-11.36639401	1.680542136
-3.943204459	-11.39125278	1.544636983
-3.491947032	-11.41107026	1.41494632
-2.269242013	-5.273467143	0.635027806
-2.186747611	-7.133446695	0.610136233
-2.143461884	-4.975187622	0.399626359
-2.597571818	-7.435450042	-1.013006689
-4.950765706	-11.38727202	3.795287283
-4.439090745	-11.37006477	3.586835609
-3.963009372	-11.40544479	3.418741464
-3.499904345	-11.43722949	3.263566006
-4.940505889	-11.37398709	3.271763504
-4.459721322	-11.42290658	3.10246497
-3.960727322	-11.37134334	2.922683596
-3.502426939	-11.39994745	2.77303726
-4.936156534	-11.37320815	2.779735009
-4.438965764	-11.36213424	2.60733085
-3.980248504	-11.41391879	2.461090674
-3.523275566	-11.44006374	2.319639944
-4.944799143	-11.39312116	2.305033963
-4.452063198	-11.39096584	2.14637124
-3.973891614	-11.38610158	1.997759388
-3.510566509	-11.36845879	1.855754698
-4.921876478	-11.34193194	1.826393107
-4.449074287	-11.37219377	1.683409952
-3.982061625	-11.3903375	1.546162147
-3.530461403	-11.41168721	1.416359189
-2.315877137	-5.336687891	0.643493336
-2.201541622	-7.103856244	0.608180128
-2.61575163	-7.414351465	-1.011220697
-4.986446074	-11.37378195	3.795871887
-4.477821351	-11.36621101	3.589936957
-4.004035633	-11.41048216	3.423917766
-3.536687616	-11.43196798	3.265145528
-4.974213825	-11.35611957	3.270998182
-4.499364599	-11.42089605	3.105653578
-3.99366046	-11.35363735	2.921268577
-3.541140804	-11.40124132	2.775981493
-4.973373533	-11.36337398	2.78104774
-4.482411089	-11.37029616	2.612347414
-4.016223733	-11.40442723	2.461689107
-3.557481205	-11.42638818	2.319069405
-4.98485448	-11.38960645	2.307406227
-4.494939053	-11.39741143	2.150174018
-4.009461061	-11.37571755	1.99808626
-3.55455489	-11.38687364	1.86053201
-4.974100048	-11.36665567	1.832823019
-4.490126247	-11.37415532	1.685731435
-4.020950483	-11.38929099	1.547687311
-3.569604905	-11.41407171	1.418007616
-2.297970532	-5.251248787	0.634038309
-2.23385172	-6.319976966	0.611685828
-2.227199112	-7.109432924	0.609239661
-2.123521977	-4.846845503	0.390356675
-2.641149075	-7.413765837	-1.012241247
-5.018996548	-11.35318158	3.794118078
-4.532163632	-11.40145629	3.605443464
-4.050914102	-11.43170084	3.43399763
-3.573471525	-11.42658761	3.266724812
-5.023094312	-11.37264661	3.280182065
-4.546200034	-11.43676818	3.113747651
-4.042786485	-11.38162415	2.931646703
-3.579603783	-11.40147507	2.778699227
-5.010576308	-11.353419	2.782360237
-4.525586558	-11.3773903	2.617154887
-4.051192821	-11.39205211	2.461689107
-3.597235497	-11.43040364	2.322113295
-5.023743553	-11.38325392	2.309230845
-4.536439743	-11.40004076	2.153285382
-4.049965763	-11.37916407	2.000864553
-3.614149848	-11.45412272	1.873322811
-5.006553074	-11.34591139	1.831946234
-4.531598809	-11.37689162	1.688189649
-4.059870326	-11.38811323	1.549212593
-3.610292819	-11.42105617	1.420244815
-2.31447163	-5.245083714	0.634148222
-2.199055493	-6.944837301	0.595710062
-2.183519301	-4.942477864	0.398596391
-2.661195927	-7.398161633	-1.011220697
-5.061202086	-11.35432621	3.799672037
-4.555692722	-11.35900317	3.596421467
-4.089857015	-11.43008985	3.437266824
-3.614326365	-11.43396774	3.27198957
-5.071729305	-11.38809724	3.289110841
-4.584874907	-11.4317647	3.116200501
-4.085887661	-11.39203602	2.93754351
-3.614566232	-11.39043865	2.778699225
-5.048955039	-11.34601637	2.784329334
-4.567026844	-11.37978792	2.620917133
-4.093409813	-11.399859	2.466078391
-3.630798474	-11.4146355	2.321162005
-5.068636572	-11.39024553	2.313792747
-4.575063231	-11.39520983	2.155014153
-4.091864242	-11.38618151	2.004296586
-3.648072555	-11.43921505	1.872706379
-5.042544793	-11.33320882	1.832384566
-4.572022371	-11.37672336	1.690238023
-4.097141255	-11.38213695	1.550102253
-3.647732943	-11.41749432	1.421186807
-2.365300561	-5.316055489	0.643603306
-2.205162551	-6.890595537	0.591634892
-2.172294889	-4.87654144	0.393814401
-2.681510754	-7.383436605	-1.010327701
-5.117182572	-11.38584851	3.815456304
-4.598437418	-11.36453925	3.602624164
-4.127847192	-11.42563341	3.439718722
-3.650269003	-11.42558303	3.272779215
-5.111792751	-11.38395112	3.292427245
-4.623925559	-11.4275302	3.118898446
-4.124789314	-11.39041095	2.940374013
-3.655146245	-11.39691872	2.783002443
-5.088133995	-11.34026675	2.786735696
-4.598614767	-11.3575658	2.619036011
-4.130034453	-11.39185241	2.467075697
-3.667303244	-11.40811646	2.322113296
-5.10476493	-11.37733235	2.314340156
-4.61517831	-11.39390021	2.157434101
-4.133843781	-11.39304957	2.007728622
-3.68315058	-11.4279689	1.872706379
-5.08417426	-11.33303022	1.834868889
-4.612115055	-11.37549591	1.692149902
-4.134413142	-11.37603896	1.550991912
-3.68426965	-11.41097456	1.421775463
-2.353120561	-5.24529347	0.635907333
-2.26264146	-6.218666892	0.603870467
-2.211264318	-6.837330721	0.587641203
-2.217482079	-4.937174619	0.39925851
-2.701760023	-7.368656625	-1.009434821
-5.15327378	-11.37270861	3.816333207
-4.643071852	-11.37436144	3.61023663
-4.163870396	-11.41562692	3.44053602
-3.687083472	-11.41983844	3.274358735
-5.147491313	-11.36997577	3.292937458
-4.662260517	-11.42136864	3.121105964
-4.163052	-11.38683023	2.94273269
-3.703007261	-11.42549293	2.792741125
-5.126923451	-11.3334932	2.788923424
-4.642682505	-11.36603612	2.624261431
-4.164964884	-11.37912834	2.467075698
-3.706228859	-11.40894966	2.324586412
-5.144914072	-11.37326291	2.316712419
-4.654211015	-11.38971749	2.159335491
-4.168777578	-11.38031426	2.007728623
-3.718805534	-11.4184941	1.873014653
-5.133596287	-11.34982734	1.840129714
-4.649618081	-11.3677104	1.693105841
-4.175786775	-11.38099347	1.553406852
-3.721108861	-11.40528201	1.422482016
-2.400332392	-5.306875548	0.64426295
-2.198793473	-6.728198619	0.578838848
-2.242080733	-4.95124355	0.400950596
-2.720566862	-7.35010141	-1.008031608
-5.181782404	-11.34292738	3.811656387
-4.687444536	-11.38312917	3.617567047
-4.202530503	-11.41273039	3.443532703
-3.722999521	-11.41122458	3.275148379
-5.18516025	-11.36028747	3.294723214
-4.699493543	-11.41238928	3.122577483
-4.223875753	-11.44420298	2.960894938
-3.741377263	-11.42426134	2.795232364
-5.168957884	-11.3336913	2.792861383
-4.693923831	-11.39152222	2.633458427
-4.19985574	-11.36629685	2.467075697
-3.745806264	-11.411517	2.327440044
-5.18427033	-11.36726546	2.318719665
-4.696264526	-11.39268577	2.162619707
-4.218386033	-11.40725884	2.01475601
-3.755981551	-11.41360112	1.874093378
-5.169213975	-11.33582397	1.840422014
-4.687494528	-11.36071867	1.694198394
-4.213094907	-11.37463967	1.554296512
-3.758569588	-11.401357	1.423423889
-2.375363346	-5.209051763	0.633268695
-2.236940201	-5.416671604	0.58980081
-2.18407356	-5.88999819	0.573245303
-2.195049422	-6.647600836	0.572481536
-2.737896708	-7.327783833	-1.006118062
-5.218157969	-11.33045084	3.812825592
-4.734122769	-11.39704799	3.626589046
-4.233836819	-11.38986329	3.440536021
-3.759803387	-11.40524606	3.2767279
-5.230901656	-11.36804312	3.301611129
-4.735599848	-11.40060358	3.123313244
-4.260323585	-11.43483318	2.961838362
-3.777020655	-11.4145777	2.795685356
-5.207373687	-11.32575868	2.794830481
-4.734855983	-11.39151597	2.636802725
-4.240529195	-11.36896578	2.470467437
-3.786361377	-11.41674356	2.330864448
-5.229799342	-11.37453296	2.323463958
-4.739892138	-11.39914196	2.166595573
