x	y	z
-2.012984784	-4.450498014	-0.447195689
-2.021125695	-4.940166011	-0.541328597
-2.040161851	-3.751652859	-0.467393947
-2.072509946	-4.167280073	-0.553578502
-2.014792902	-4.450978249	-0.628393236
-2.774320122	-6.775098774	-1.013936047
-2.111966018	-3.879014698	-0.648183536
-2.06181886	-4.139800972	-0.722988575
-2.001385939	-4.415205411	-0.80486827
-2.135214498	-5.212798067	-0.992972602
-2.161152946	-3.962764914	-0.833073762
-2.020019682	-4.049497248	-0.879313523
-1.977263203	-4.35430658	-0.977038108
-1.710475521	-4.176486641	-0.968859584
-2.084742398	-3.812202687	-0.970187892
-1.846451834	-3.694604471	-0.962597937
-6.174587738	-11.32721477	3.943193588
-5.628205561	-11.32589292	3.716527688
-5.124407353	-11.37137278	3.531527994
-4.62940109	-11.39383361	3.355697856
-6.136934548	-11.26703005	3.385031407
-5.632204821	-11.33394041	3.202046211
-5.130211882	-11.36148246	3.025759574
-4.640471214	-11.38459705	2.858647174
-6.145965054	-11.29158334	2.882339638
-5.647359936	-11.35797044	2.711214356
-5.135668713	-11.36246218	2.538698068
-4.636071692	-11.35169059	2.37614252
-6.14202825	-11.28435059	2.3844109
-5.635196717	-11.32953924	2.220699903
-5.136155235	-11.35561618	2.064601945
-4.647904283	-11.35630759	1.913852897
-6.150408102	-11.30115596	1.900629501
-5.632649509	-11.31500665	1.742405081
-5.131847751	-11.33028958	1.593824405
-1.986345634	-4.817736154	-0.336351063
-2.045036947	-4.086466387	-0.375289284
-2.020018347	-4.42980443	-0.445736926
-2.023367729	-4.902673706	-0.537897992
-2.047841502	-3.73840137	-0.466523569
-2.092403861	-4.175105958	-0.555468267
-2.021850363	-4.430338867	-0.626352193
-2.793579998	-6.762893468	-1.013387326
-2.102922831	-3.834346925	-0.641794633
-2.061214537	-4.106965201	-0.718355029
-2.010821813	-4.400071744	-0.803230334
-2.150068944	-5.203492404	-0.992451894
-2.190819361	-3.988006139	-0.839789179
-2.032874915	-4.044157719	-0.879504258
-1.987350284	-4.341093554	-0.975436771
-1.721040844	-4.165797365	-0.967600314
-2.103020895	-3.817756742	-0.973238815
-1.852521438	-3.678484265	-0.959874243
-6.216214341	-11.32079224	3.947578342
-5.672807204	-11.32830349	3.723012433
-5.168424184	-11.37574577	3.537794109
-4.668360094	-11.38939607	3.358593449
-6.174263358	-11.25323497	3.386562053
-5.680840672	-11.34434578	3.209894948
-5.17511031	-11.36780116	3.031656381
-4.677228713	-11.37481052	2.859779425
-6.18573831	-11.2820864	2.884746234
-5.681741117	-11.33971686	2.711005264
-5.17538011	-11.35735279	2.541092029
-4.672745917	-11.34195337	2.377093575
-6.181345984	-11.27407519	2.386235754
-5.667280494	-11.30691457	2.219662782
-5.175471936	-11.34967942	2.066399857
-4.697428135	-11.37761198	1.91986307
-6.18837965	-11.288306	1.901652555
-5.677553159	-11.31803808	1.745546007
-5.164112275	-11.30907809	1.593061822
-1.98425551	-4.771077382	-0.333516982
-2.035126599	-4.035678357	-0.37119671
-2.031935535	-4.41996685	-0.445372264
-2.034575557	-4.887258351	-0.536889004
-2.056899888	-3.727749398	-0.465979588
-2.101174279	-4.160689592	-0.554405278
-2.023825565	-4.398886088	-0.622780326
-2.810124339	-6.744233081	-1.011878256
-2.102237134	-3.805360208	-0.638019335
-2.001571719	-3.957792426	-0.693333834
-2.018119658	-4.38044229	-0.80077349
-2.166780722	-5.198689369	-0.992799032
-2.199711133	-3.975243225	-0.838518707
-2.049708083	-4.046659101	-0.881411666
-1.999016987	-4.331417533	-0.974636043
-1.734189367	-4.161400275	-0.967810183
-2.111882527	-3.806166367	-0.97193121
-1.862035264	-3.669309702	-0.958966346
-6.240271095	-11.28241995	3.940855177
-5.722663247	-11.34082613	3.73288034
-5.211714406	-11.37820691	3.543514967
-4.708809733	-11.38839301	3.3625419
-6.232611336	-11.27739923	3.399572555
-5.727410047	-11.35023292	3.216517265
-5.215231398	-11.36335222	3.034722682
-4.713223794	-11.36310646	2.860458917
-6.227398591	-11.27586845	2.888027828
-5.717826182	-11.32485102	2.711632304
-5.220425984	-11.36368207	2.546079744
-4.709404447	-11.33209632	2.378044863
-6.226362588	-11.27399292	2.390250246
-5.710823761	-11.30705726	2.223119851
-5.215625103	-11.34540045	2.068524405
-4.739149553	-11.37956475	1.922637069
-6.234937802	-11.29091727	1.905305843
-5.726997403	-11.32974157	1.750052595
-5.220352274	-11.34003387	1.599670906
-1.99502336	-4.755765281	-0.332872895
-2.024923871	-3.984989811	-0.367104135
-2.041298899	-4.404676958	-0.444460551
-2.034537947	-4.845218187	-0.532953905
-2.046112513	-3.681452692	-0.460974912
-2.104021578	-4.134753616	-0.551806873
-2.006013323	-4.325173936	-0.613212827
-2.827347997	-6.727361171	-1.010643604
-2.114383082	-3.79975738	-0.638164533
-2.022227718	-3.968358483	-0.696268409
-2.033211271	-4.377809054	-0.801428664
-2.185773039	-5.199280167	-0.99418782
-2.209981627	-3.965039762	-0.837792663
-2.046941006	-4.010624218	-0.874926503
-2.008576414	-4.317269081	-0.972834433
-1.758314139	-4.183100327	-0.974106937
-2.124025941	-3.800521214	-0.972149241
-1.875057323	-3.667048123	-0.959874243
-6.291611218	-11.29329753	3.951378258
-5.773084	-11.35400419	3.743030059
-5.250228229	-11.37002534	3.545966862
-4.749668071	-11.38813985	3.366753566
-6.270002501	-11.26329373	3.401103202
-5.764841453	-11.33779261	3.21798902
-5.253333653	-11.35435454	3.036609529
-4.750694736	-11.35488269	2.862044399
-6.269078142	-11.26950102	2.891309422
-5.760968578	-11.32381564	2.715603879
-5.26432421	-11.36717447	2.550468793
-4.751359744	-11.33479757	2.381659527
-6.261877451	-11.25655594	2.390615028
-5.748613664	-11.29562836	2.224329826
-5.246674131	-11.32129014	2.067053365
-4.771743414	-11.35950609	1.921712364
-6.292149167	-11.3123677	1.912174204
-5.772519821	-11.33330383	1.753330017
-5.275159967	-11.36715142	1.605771679
-1.974607553	-4.666908071	-0.327075955
-2.045315891	-3.994726847	-0.368577472
-2.043000792	-4.373131058	-0.441907744
-2.023397501	-4.777573635	-0.526193606
-2.078277401	-3.712456094	-0.465653192
-2.0147584	-3.929464223	-0.525232262
-2.007931291	-4.294740315	-0.609768513
-2.846041094	-6.714095438	-1.009957674
-2.123611941	-3.788937029	-0.637438547
-2.02446461	-3.942799644	-0.692870467
-2.039522036	-4.356362519	-0.798644234
-2.202482797	-5.194363347	-0.994534959
-2.228393847	-3.969388669	-0.840152172
-2.06507194	-4.01567391	-0.877406116
-2.015988032	-4.298667748	-0.97003206
-1.773047544	-4.18218717	-0.975156339
-2.13711202	-3.796538324	-0.972802985
-1.888975035	-3.666472907	-0.96123609
-1.781200957	-3.155373641	-0.954436176
-6.326696621	-11.27477547	3.951670557
-5.822327097	-11.36441686	3.752334103
-5.277777283	-11.33816336	3.541063306
-4.786828579	-11.37884997	3.368332851
-6.340467756	-11.30810171	3.420491401
-5.822142333	-11.36405648	3.230497891
-5.291018776	-11.34434913	3.038260814
-4.798383883	-11.3707662	2.869744607
-6.326994662	-11.29192622	2.902029435
-5.799697046	-11.31391996	2.717485001
-5.307049047	-11.36784049	2.55425941
-4.794140505	-11.33915664	2.385654471
-6.313684135	-11.26817101	2.397184175
-5.789084019	-11.28933241	2.226576922
-5.290569256	-11.32480428	2.070648954
-4.806957081	-11.34572295	1.921866501
-6.336012634	-11.3094091	1.91495071
-5.813142889	-11.32699776	1.7551054
-5.314212119	-11.35989887	1.607042689
-2.006541393	-4.702131384	-0.32997444
-2.042026197	-3.958318266	-0.365794502
-2.05343775	-4.360535938	-0.441269528
-2.024367115	-4.739320714	-0.52266209
-2.063780644	-3.660169667	-0.45988692
-2.02498126	-3.91973558	-0.524759835
-2.023634966	-4.29394292	-0.610533897
-2.867794366	-6.708065088	-1.010369187
-2.133767031	-3.779819486	-0.637002956
-2.033827747	-3.931304932	-0.691943793
-2.031405731	-4.304585633	-0.790290882
-2.217246885	-5.184865404	-0.994014252
-2.242981547	-3.966813212	-0.841059652
-2.066091975	-3.987529812	-0.872637625
-2.02874797	-4.291577085	-0.969831909
-1.785869963	-4.176727691	-0.975156338
-2.145861463	-3.784869782	-0.97149538
-1.902009556	-3.664117929	-0.962143989
-1.785137839	-3.139806587	-0.951379533
-6.360787046	-11.25447979	3.951378256
-5.864646663	-11.36099387	3.757127032
-5.332156146	-11.36372811	3.554139851
-4.834151011	-11.39341751	3.377019631
-6.399379445	-11.33153522	3.43350214
-5.861870958	-11.35561736	3.233195837
-5.327451823	-11.33158025	3.039204236
-4.83477204	-11.35957616	2.870650597
-6.375515778	-11.29710543	2.908373753
-5.848292377	-11.32300838	2.723964741
-5.348158941	-11.36480464	2.557252039
-4.850855464	-11.37586943	2.396498462
-6.36562119	-11.27957271	2.403753321
-5.832734085	-11.28901915	2.230034227
-5.332433642	-11.32369244	2.073427245
-4.842130764	-11.33183046	1.922020638
-6.38331955	-11.31231776	1.918750267
-5.852416668	-11.31790917	1.756471061
-5.364268831	-11.37583904	1.611618299
-1.999655517	-4.646454619	-0.32649627
-2.053701012	-3.951150591	-0.365712665
-2.064670906	-4.349717357	-0.440813671
-2.040078465	-4.735829082	-0.522964822
-2.066164135	-3.638261612	-0.457928579
-2.034246556	-3.908219566	-0.524051137
-2.032968935	-4.279651345	-0.609385792
-2.886007904	-6.693777207	-1.009546046
-2.138506886	-3.761213864	-0.634970081
-2.044509036	-3.922418321	-0.691480426
-2.0365511	-4.281406885	-0.787178863
-2.231973371	-5.175325348	-0.993493426
-2.611856137	-4.586287333	-0.974097398
-2.080587344	-3.985523346	-0.8735913
-2.018303929	-4.235801646	-0.958622302
-1.802547082	-4.180207316	-0.977255256
-2.152139664	-3.768945713	-0.969098317
-1.910985159	-3.653950241	-0.961009115
-1.778904818	-3.106622301	-0.942973786
-6.436444511	-11.30721863	3.976808934
-5.920724081	-11.38380575	3.77066015
-5.3760447	-11.36645168	3.560133455
-4.865287268	-11.36966386	3.374387252
-6.430767802	-11.30596536	3.431716384
-5.900260771	-11.34446054	3.235158022
-5.361775453	-11.3143046	3.038968439
-4.880357491	-11.36975066	2.876992054
-6.422681451	-11.29954879	2.914061943
-5.878489106	-11.29633811	2.721874526
-5.395598963	-11.37490309	2.563237061
-4.894266252	-11.38077464	2.400683899
-6.414772297	-11.28563409	2.409227651
-5.880075037	-11.29553447	2.234874127
-5.377725178	-11.32956086	2.077513024
-4.886649097	-11.33960674	1.925873245
-6.427771373	-11.3098823	1.921672922
-5.892146951	-11.30956568	1.757973219
-5.402124362	-11.36559925	1.612507958
-2.01270938	-4.637551628	-0.326303032
-2.110450443	-3.695670553	-0.308719317
-2.057490785	-3.928938996	-0.364239327
-2.081014452	-4.349650816	-0.441451888
-2.028435169	-4.669321852	-0.516305432
-2.093603256	-3.66038115	-0.461518895
-2.0406932	-3.891407136	-0.522633856
-2.032382911	-4.244767867	-0.605303708
-1.986267554	-4.568327469	-0.689904516
-2.124469819	-3.709988315	-0.627419601
-2.059748812	-3.922250488	-0.692561595
-2.040720507	-4.256458421	-0.783739258
-2.25098265	-5.175678551	-0.994882215
-2.63178555	-4.588488858	-0.97627535
-2.083208924	-3.960876447	-0.869585806
-2.014323299	-4.194261998	-0.950615431
-1.816533001	-4.17734723	-0.977885035
-2.150069129	-3.738636424	-0.962996472
-1.919008439	-3.642039023	-0.959420294
-1.705203516	-3.549654376	-0.9586679
-1.755576788	-3.044186673	-0.925652796
-6.481568378	-11.30567167	3.983239563
-5.958738574	-11.37153603	3.772633777
-5.407992872	-11.34382495	3.558226346
-4.901292568	-11.35734124	3.375177131
-6.468307559	-11.29121708	3.433247032
-5.939087046	-11.33403354	3.237365539
-5.408608541	-11.32323144	3.045808669
-4.92140734	-11.36902687	2.880615779
-6.455378658	-11.27640435	2.913186711
-5.929465126	-11.3094287	2.729399254
-5.436388653	-11.37067288	2.566030135
-4.929158899	-11.36570642	2.4006839
-6.482582247	-11.32392324	2.421635907
-5.9243086	-11.29575869	2.238504286
-5.429489425	-11.34860745	2.084050223
-4.927322762	-11.33815368	1.928184832
-6.475216988	-11.31243101	1.925472478
-5.941088939	-11.31862608	1.762206697
-5.442539198	-11.36060117	1.614160199
-2.027727897	-4.633183221	-0.326431867
-2.021633387	-3.831815149	-0.355808637
-2.035091542	-4.220357904	-0.428961407
-1.979675913	-4.519092839	-0.500363217
-2.096388199	-3.639297364	-0.459669333
-2.047983549	-3.87634832	-0.521452732
-2.035912593	-4.218860682	-0.602497223
-1.996693788	-4.554047398	-0.688669864
-2.083941093	-3.613459437	-0.61217333
-2.071772491	-3.915912665	-0.692561594
-2.028875456	-4.198659997	-0.77423935
-2.265268691	-5.165140642	-0.994187821
-2.646834273	-4.58209612	-0.976638343
-2.101325965	-3.965742707	-0.872065419
-2.014375637	-4.161605644	-0.944610262
-1.829340374	-4.1717547	-0.977885036
-2.164463755	-3.737089716	-0.964304018
-1.931999574	-3.639575404	-0.960328193
-1.717355892	-3.54702955	-0.959377493
-1.76490802	-3.038786479	-0.925652798
-1.600634268	-3.009626573	-0.932348897
-6.52961211	-11.30892193	3.991423995
-5.998076924	-11.36168601	3.775453078
-5.455688222	-11.35406498	3.566671846
-4.93418847	-11.33782727	3.373860822
-6.505817001	-11.2763441	3.434777678
-5.977904423	-11.32347518	3.239573056
-5.451331405	-11.32322072	3.050290222
-4.958991599	-11.36012277	2.88220126
-6.495304921	-11.26584485	2.915593307
-5.971898776	-11.30588462	2.732952645
-5.471248039	-11.35394125	2.566030136
-4.977773083	-11.38201154	2.407342452
-6.504524496	-11.28183601	2.416891616
-5.965377569	-11.28972231	2.240924236
-5.467280555	-11.33811714	2.085194157
-4.966446793	-11.3329387	1.929879989
-6.518291663	-11.30708259	1.9279568
-5.990141735	-11.32749412	1.766440059
-5.479524268	-11.34831637	1.614795704
-2.052005485	-4.649764516	-0.328042116
-2.02402424	-3.807993857	-0.354171596
-2.036276937	-4.189911264	-0.426499765
-1.988304815	-4.501167394	-0.499051499
-2.106545986	-3.631128975	-0.459451746
-2.036071607	-3.825341991	-0.515429204
-2.049713956	-4.214378575	-0.602752331
-2.000642751	-4.525251301	-0.685240213
-2.089054014	-3.596782203	-0.610430907
-2.070764627	-3.885125294	-0.688236921
-2.033540549	-4.175564648	-0.771127333
-2.261985747	-5.114934016	-0.985855209
-2.659890512	-4.57225419	-0.976275351
-2.121803528	-3.974865005	-0.875498707
-2.011669364	-4.123705801	-0.937404062
-1.846875186	-4.17685317	-0.980403691
-2.194112852	-3.761623857	-0.972367154
-1.947289829	-3.641360188	-0.962370962
-1.727377766	-3.539997835	-0.958904412
-6.571007024	-11.30041072	3.995516213
-6.038311882	-11.3533955	3.778836474
-5.481269884	-11.31822182	3.560678241
-4.979029212	-11.34560488	3.380704867
-6.528237614	-11.23543126	3.428399983
-6.02308678	-11.3247684	3.245214279
-5.48095424	-11.29595142	3.047459717
-4.998921976	-11.35644511	2.885145493
-6.540616793	-11.26442846	2.920406262
-6.016662896	-11.30650168	2.737551024
-5.515045384	-11.35561201	2.570219863
-5.017422808	-11.37746584	2.409625311
-6.592426405	-11.35365589	2.436599056
-6.004614217	-11.2800613	2.24265277
-5.506783182	-11.33105083	2.086991833
-5.006783498	-11.33030088	1.932037557
-6.558910845	-11.29729794	1.929710369
-6.026263353	-11.31168613	1.766849781
-5.519956532	-11.34304616	1.616448063
-2.072752427	-4.658034873	-0.329072681
-2.04463641	-3.818460072	-0.355726771
-2.046931744	-4.179173091	-0.426043909
-1.99805699	-4.485957872	-0.498042511
-2.127705353	-3.641815223	-0.461627702
-2.06422179	-3.849706976	-0.519563025
-2.054776223	-4.192039699	-0.600456181
-2.016129831	-4.522711136	-0.685788935
-2.155528231	-3.685153881	-0.626548361
-2.092956746	-3.897904423	-0.691634864
-2.031997832	-4.140081846	-0.765722263
-2.046250958	-4.588988226	-0.885689903
-2.673905418	-4.564072375	-0.976275351
-2.127014372	-3.955368284	-0.872637624
-2.019988644	-4.108722091	-0.935402359
-1.862467802	-4.177418182	-0.981872944
-2.105296739	-3.584045561	-0.928129005
-1.965380716	-3.648229747	-0.965775579
-1.744661751	-3.547760036	-0.962452437
-6.603228747	-11.27607161	3.994054707
-6.075834271	-11.3398915	3.780528056
-5.529472819	-11.32902219	3.569396017
-5.027477298	-11.36115333	3.389918075
-6.606138435	-11.28962383	3.451104584
-6.059633312	-11.30965485	3.246195372
-5.542905805	-11.33495512	3.06255543
-5.045988774	-11.36865311	2.892166442
-6.582533323	-11.25694409	2.923687856
-6.052708698	-11.29057562	2.738178066
-5.549857816	-11.33863873	2.570219863
-5.059883571	-11.37906307	2.413239975
-6.635665112	-11.34780593	2.43970112
-6.06107059	-11.30238298	2.250777121
-5.547161889	-11.32562036	2.089116381
-5.046748833	-11.32662006	1.934040989
-6.595536735	-11.28053741	1.930294969
-6.070776533	-11.3114748	1.769717599
-5.56215561	-11.34119708	1.618608731
-2.073552653	-4.621607801	-0.326947149
-2.046405354	-3.793748628	-0.354007892
-2.047401924	-4.147870195	-0.423491131
-2.002028327	-4.458024756	-0.495620893
-2.119208541	-3.601856377	-0.457384597
-2.059505206	-3.812776732	-0.515429204
-2.044785598	-4.139474894	-0.593822662
-2.027153329	-4.510180127	-0.684828644
-2.110582044	-3.583043911	-0.61028571
-2.101145048	-3.884512626	-0.690399258
-2.05474939	-4.154166085	-0.769489456
-1.992073689	-4.430890675	-0.85635208
-2.677401521	-4.538061386	-0.972463875
-2.175609943	-4.01614832	-0.887515361
-2.026494894	-4.090214838	-0.932599986
-1.86725776	-4.15384934	-0.977675109
-1.980280311	-3.649030854	-0.967591318
-1.752949262	-3.537167381	-0.96103325
-6.652365994	-11.28047263	4.002823743
-6.117431397	-11.33386168	3.784757124
-5.592657617	-11.36985118	3.587648867
-5.081964123	-11.3897264	3.403079735
-6.637307044	-11.26347147	3.449318828
-6.107656047	-11.31575128	3.253308351
-5.587535427	-11.33794456	3.067980642
-5.083629053	-11.35934176	2.893751688
-6.661105504	-11.31152983	2.943158786
-6.094289324	-11.28485987	2.741313507
-5.590253662	-11.33298299	2.572813381
-5.099991701	-11.37513121	2.415713091
-6.670947065	-11.32824237	2.439883512
-6.090099473	-11.27333621	2.248702879
-5.58974229	-11.32447219	2.092058226
-5.085523597	-11.32009571	1.935582007
-6.637141039	-11.27218473	1.93234084
-6.100739689	-11.28408213	1.768351937
-5.611866445	-11.3543124	1.622930068
-1.988188983	-4.395192447	-0.31135982
-2.062317247	-3.795333843	-0.354744546
-2.029515448	-4.080047602	-0.417200279
-2.013233856	-4.446423641	-0.495015489
-2.130248935	-3.595337902	-0.457384597
-2.074040634	-3.81167369	-0.516137844
-2.034934108	-4.087898878	-0.587316813
-2.039345413	-4.500330695	-0.684279923
-2.184661558	-3.682920981	-0.628435982
-2.115888863	-3.883253741	-0.691325933
-2.128655227	-4.270565091	-0.792256345
-1.998339681	-4.408612871	-0.853227366
-2.69583215	-4.537434592	-0.974097397
-2.194504223	-4.021518239	-0.890185767
-2.026779738	-4.059434086	-0.926995182
-1.874342346	-4.135633778	-0.974736601
-1.983524512	-3.628410787	-0.963732809
-1.768133996	-3.540465269	-0.963398542
-6.716729816	-11.31016816	4.02065459
-6.156757512	-11.32346904	3.787576424
-5.628795856	-11.35522617	3.588466167
-5.114508416	-11.36880311	3.401500449
-6.7029183	-11.29544196	3.465390625
-6.152531352	-11.31569676	3.25870424
-5.632667296	-11.34163808	3.073641417
-5.128470138	-11.36588745	2.899413653
-6.703243252	-11.30363012	2.94644038
-6.136826662	-11.28071317	2.744866898
-5.627613622	-11.32104378	2.574010244
-5.13769667	-11.3656941	2.417044662
-6.707676438	-11.3111052	2.440613547
-6.146784616	-11.29526075	2.256826995
-5.631049205	-11.32051956	2.094509646
-5.138574008	-11.34494183	1.942516769
-6.681279008	-11.26793691	1.935117345
-6.146701397	-11.28619165	1.771629477
-5.655961237	-11.35568735	1.625599165
-1.998351388	-4.381808242	-0.310844538
-2.049067879	-3.743528124	-0.350488268
-2.025512001	-4.040862246	-0.413826952
-2.025213164	-4.43660622	-0.494611906
-2.15400276	-3.61012691	-0.460104536
-2.070451915	-3.777427882	-0.512358314
-2.025230352	-4.037309735	-0.580938462
-2.049026572	-4.485043256	-0.682908063
-2.146734168	-3.593809373	-0.614351344
-2.128267988	-3.877610137	-0.691480427
-2.096583192	-4.174097132	-0.775549699
-2.013493057	-4.406044016	-0.853921759
-2.204940089	-4.011325879	-0.889422769
-2.044948742	-4.064574714	-0.929597401
-1.887427778	-4.130752798	-0.974946525
-1.996056257	-3.624867701	-0.964413732
-1.77724062	-3.531552347	-0.962452437
-6.767594593	-11.3165933	4.030300529
-6.202068586	-11.32388176	3.794061171
-5.670055935	-11.35081528	3.592552661
-5.149762172	-11.3539369	3.401763664
-6.789619803	-11.36197574	3.492176954
-6.198860715	-11.31802476	3.264836127
-5.680049011	-11.34950515	3.080481645
-5.168559155	-11.36162544	2.90235812
-6.744394648	-11.29390245	2.949284475
-6.184095363	-11.28498767	2.750510268
-5.667585842	-11.31423943	2.576404443
-5.184755842	-11.37667832	2.422752162
-6.749404257	-11.30229194	2.443168204
-6.178095053	-11.27030293	2.255617019
-5.6728269	-11.3173025	2.097124385
-5.177049041	-11.33721266	1.943903769
-6.713281228	-11.24313861	1.93438671
-6.195592032	-11.29333589	1.775726342
-5.697892286	-11.35246493	1.627632755
-2.060062062	-3.736351307	-0.35040643
-2.01904274	-3.997296014	-0.409997742
-2.032992349	-4.417719207	-0.493199277
-2.159948865	-3.594980574	-0.459016543
-2.063313102	-3.737155128	-0.507752067
-2.038949459	-4.033732745	-0.581321182
-2.067335009	-4.488632213	-0.684417074
-2.144490171	-3.565162633	-0.610576105
-2.130115642	-3.852904523	-0.688236921
-2.006917249	-3.965204134	-0.737877776
-2.009693929	-4.362278646	-0.846630681
-2.222942345	-4.014847623	-0.891711647
-2.061396276	-4.066146972	-0.931398953
-1.892728825	-4.108958225	-0.971168428
-2.002916445	-3.611061901	-0.962370963
-1.774883746	-3.500086013	-0.955356444
-6.805241659	-11.30069312	4.032054337
-6.226584486	-11.28631941	3.787858474
-5.713072805	-11.34969483	3.597728964
-5.194600923	-11.36001842	3.408344494
-6.80251047	-11.30463794	3.480952205
-6.234959717	-11.30150078	3.265571889
-5.723156494	-11.34851192	3.0849632
-5.21070057	-11.36165146	2.906434603
-6.79359481	-11.29740818	2.955628794
-6.225304128	-11.27794803	2.753436617
-5.710218949	-11.31254421	2.579995504
-5.236849081	-11.3981857	2.430742285
-6.789114328	-11.289957	2.444992821
-6.222164422	-11.26854063	2.259074325
-5.712414143	-11.309531	2.09892206
-5.221723056	-11.34281713	1.947602357
-6.758448211	-11.24029414	1.937455516
-6.238355981	-11.28901533	1.778047944
-5.726874974	-11.32342398	1.625980514
-2.186071345	-3.618860601	-0.306693504
-2.070063672	-3.727399504	-0.350160859
-2.029489917	-3.987533067	-0.409633051
-2.044442578	-4.406948284	-0.492694782
-2.175599091	-3.595991636	-0.459995728
-2.067529415	-3.717789809	-0.505980438
-2.020255006	-3.966476353	-0.572519066
-2.080678971	-4.4813701	-0.684279922
-2.148754059	-3.547565164	-0.608688485
-2.136157994	-3.835993077	-0.686383514
-2.017280206	-3.955513012	-0.737222659
-1.994859946	-4.29535551	-0.834826101
-2.272543369	-4.07488055	-0.906589442
-2.07296996	-4.058058316	-0.930998588
-1.907384921	-4.107565908	-0.972217944
-2.011135575	-3.599798843	-0.961009116
-1.788266097	-3.49981559	-0.956775631
-6.856243243	-11.30674673	4.041700278
-6.284016634	-11.30825703	3.801673401
-5.750477917	-11.3372631	3.599363563
-5.233063495	-11.35191338	3.410713423
-6.842672638	-11.2928116	3.483758392
-6.281846387	-11.30435094	3.271949107
-5.781719367	-11.37768271	3.097700236
-5.251255645	-11.35798895	2.909605331
-6.84136374	-11.2982143	2.961316984
-6.263676852	-11.26563293	2.755108883
-5.763112308	-11.33078201	2.588175169
-5.280458059	-11.40077249	2.434737463
-6.824738148	-11.27075775	2.44535784
-6.277771531	-11.28727211	2.26667988
-5.751111767	-11.29986578	2.100393102
-5.258161721	-11.33032881	1.948218788
-6.803660733	-11.2372773	1.94052432
-6.288378072	-11.29752196	1.782417919
-5.767892716	-11.31817369	1.627759833
-2.202865006	-3.62151013	-0.307489374
-2.081975941	-3.721900991	-0.350242726
-2.033988944	-3.966224287	-0.408083152
-2.041938049	-4.366409212	-0.488860594
-2.189724169	-3.594393691	-0.460648517
-2.049323856	-3.658582158	-0.498775785
-2.017923136	-3.932022363	-0.568436923
-2.09399801	-4.474068724	-0.684142714
-2.179719871	-3.573899189	-0.614351345
-2.141149841	-3.817357414	-0.684221177
-2.024446369	-3.939653809	-0.735420931
-1.995501818	-4.262457875	-0.829618205
-2.472529021	-4.401673603	-0.980978244
-2.092584229	-4.065617824	-0.934201325
-1.91873426	-4.099038496	-0.971588282
-2.023603036	-3.596158038	-0.96169004
-1.80388711	-3.503815272	-0.959377493
-6.90435542	-11.30769648	4.049592883
-6.320086176	-11.29143565	3.802519307
-5.796617868	-11.34184328	3.606446741
-5.27681047	-11.35505243	3.41650461
-6.885847223	-11.28579771	3.488095227
-6.316024584	-11.28417964	3.271703775
-5.818369811	-11.36335097	3.098643895
-5.288956951	-11.34800484	2.911190814
-6.886661457	-11.29466711	2.965911307
-6.312066693	-11.27110696	2.761170438
-5.796953787	-11.31130322	2.587776293
-5.315410168	-11.38451879	2.434737463
-6.862355386	-11.25480313	2.446452658
-6.324405245	-11.28944139	2.271001453
-5.793855506	-11.29796948	2.103334711
-5.294991028	-11.31861804	1.948989238
-6.850978261	-11.23746791	1.944177727
-6.330759998	-11.29200126	1.784602905
-5.808026555	-11.31101349	1.629285115
-2.210839813	-3.609631638	-0.307055274
-2.090449466	-3.710286127	-0.349751613
-2.044776187	-3.957311187	-0.407809627
-2.047264255	-4.34302563	-0.486943472
-2.210097492	-3.602911139	-0.462606859
-2.077616323	-3.682547576	-0.502909606
-2.022232343	-3.910835703	-0.566268268
-2.037978368	-4.319807403	-0.661507135
-2.191191883	-3.56803812	-0.614496541
-2.145561816	-3.797867285	-0.681904404
-2.036523404	-3.933424615	-0.735420932
-2.006468041	-4.251862698	-0.828750242
-2.484571414	-4.391504213	-0.980406039
-2.100086034	-4.049611364	-0.931999469
-1.935055803	-4.101090492	-0.973477271
-2.031264896	-3.584001879	-0.960101219
-1.819996909	-3.5086144	-0.962215867
-1.699307222	-2.992807648	-0.941318858
-6.931501293	-11.27424071	4.045207892
-6.360823664	-11.28285806	3.806184518
-5.840637467	-11.34197005	3.612167833
-5.316942638	-11.3501666	3.41992663
-6.921957691	-11.26709008	3.488860549
-6.362992698	-11.28670603	3.278080994
-5.860779164	-11.36012885	3.10265362
-5.327888606	-11.34054158	2.913455554
-6.917196539	-11.26683388	2.964161078
-6.349499011	-11.25679918	2.76242452
-5.851411002	-11.33177509	2.59655439
-5.351984584	-11.37171101	2.435498495
-6.90045305	-11.23956209	2.447730104
-6.368691217	-11.28714201	2.274458524
-5.836188851	-11.29504159	2.106113004
-5.335591275	-11.31483166	1.951146807
-6.902501266	-11.24421813	1.949000219
-6.378037823	-11.29495327	1.788153553
-5.854095273	-11.3151651	1.63246252
-2.229756627	-3.615565642	-0.308140525
-2.098379609	-3.697787718	-0.349178664
-2.064264926	-3.965152054	-0.40926839
-2.05075857	-4.316056075	-0.484622794
-2.200767936	-3.563129516	-0.458363782
-2.082036157	-3.664069267	-0.501256055
-2.029638536	-3.895817221	-0.56499261
-2.039310906	-4.288486935	-0.657665971
-2.130329979	-3.744037035	-0.673409551
-2.047212756	-3.924534005	-0.734929551
-2.022464297	-4.25191226	-0.829965403
-2.497060572	-4.382155233	-0.980024453
-2.122028065	-4.061385231	-0.936203086
-1.947208828	-4.094251677	-0.973267346
-2.039836762	-3.573523954	-0.958966344
-1.821301905	-3.484930878	-0.957248713
-1.704650393	-2.980881655	-0.93920826
-7.02243438	-11.34399274	4.0779461
-6.383565507	-11.24243179	3.799136146
-5.886041472	-11.34449557	3.618706224
-5.350915604	-11.33205645	3.419400202
-7.011936695	-11.33543214	3.51666731
-6.407163405	-11.28399222	3.282986456
-5.898292983	-11.34726821	3.104068872
-5.373077894	-11.34614967	2.919117755
-6.957373987	-11.25468881	2.966567438
-6.398978826	-11.26362507	2.76890426
-5.882530533	-11.30681513	2.594958414
-5.388951549	-11.35967315	2.43644955
-6.942141066	-11.23004714	2.450284759
-6.438815285	-11.33006136	2.287077066
-5.874002894	-11.28320857	2.107257172
-5.377914456	-11.31447214	1.953920688
-6.943727229	-11.23392833	1.950899939
-6.421475888	-11.2908331	1.790611768
-5.888323815	-11.29627242	1.632335443
-2.098339878	-3.671430782	-0.347296052
-2.074107419	-3.954390845	-0.408812533
-2.053676761	-4.288208975	-0.482201206
-2.209064213	-3.552140275	-0.457819771
-2.077484271	-3.630085436	-0.497476583
-2.043886077	-3.893963074	-0.56563044
-2.043039441	-4.262559326	-0.654647892
-2.155069949	-3.760628737	-0.677579731
-2.055113022	-3.910375578	-0.733455467
-2.040608582	-4.256343783	-0.832048585
-2.508538799	-4.371067961	-0.979261512
-2.118505004	-4.024511492	-0.929197038
-1.961451234	-4.091785273	-0.974106937
-2.05952772	-3.582446865	-0.963051886
-1.836058994	-3.487064297	-0.959377493
-1.717157403	-2.981488605	-0.941055047
-7.057204386	-11.3223944	4.077946099
-6.462321605	-11.30025041	3.825356468
-5.931516193	-11.34684872	3.625244379
-5.402240779	-11.35043129	3.429929484
-7.035945518	-11.29663101	3.511310044
-6.456190415	-11.28952888	3.290344532
-5.9362342	-11.33514502	3.105719921
-5.417511987	-11.34982877	2.924326724
-7.013010748	-11.26725652	2.975537222
-6.475757291	-11.31778493	2.787089159
-5.928564739	-11.31041228	2.599945894
-5.425047452	-11.3457435	2.437020323
-6.997863133	-11.24291992	2.457766097
-6.477948496	-11.31794823	2.288632985
-5.921880748	-11.2904703	2.111996458
-5.427115658	-11.32821586	1.959160294
-6.998022601	-11.244488	1.956453065
-6.467902506	-11.29170949	1.79388919
-5.925258579	-11.28254513	1.632970948
-2.245025682	-3.590822109	-0.307199964
-2.111085329	-3.667567237	-0.347541622
-2.041099123	-3.862603847	-0.399968903
-2.03006242	-4.205729529	-0.473624693
-2.20518018	-3.521755447	-0.454773438
-2.119851239	-3.677895174	-0.504917448
-2.042376953	-3.862247283	-0.561931017
-2.032840165	-4.20810715	-0.647239927
-2.163634145	-3.7488651	-0.676653056
-2.067561771	-3.904923998	-0.733619261
-2.04251693	-4.22700838	-0.827535082
-2.518498523	-4.357402196	-0.977926367
-2.157925344	-4.069061787	-0.941007162
-1.980800686	-4.099833897	-0.977465181
-2.045621656	-3.533127217	-0.951476186
-1.850846404	-3.489140041	-0.961506274
-7.100549597	-11.3144605	4.08291522
-6.497917935	-11.28203471	3.825920331
-5.970783599	-11.33711049	3.627968786
-5.438289629	-11.33641296	3.430719361
-7.075192875	-11.2823643	3.513606015
-6.518375003	-11.31755342	3.30432516
-5.969167838	-11.31344148	3.104776497
-5.453574363	-11.33578793	2.925006217
-7.070344345	-11.28206844	2.985163371
-6.513379054	-11.3029486	2.788343243
-5.968727813	-11.30256846	2.602340092
-5.463665947	-11.33700595	2.438732643
-7.019270348	-11.20057042	2.453204197
-6.527889433	-11.32447396	2.293991443
-5.967092781	-11.29231163	2.115755366
-5.465711172	-11.31951993	1.960547293
-7.040366316	-11.23554048	1.958645086
-6.502514274	-11.2718132	1.79388919
-5.977472332	-11.29762958	1.637800712
-2.120827882	-3.658486645	-0.347296052
-2.037497307	-3.827315432	-0.396960239
-2.032510473	-4.178010369	-0.471203106
-2.217564678	-3.517496282	-0.455099833
-2.089748718	-3.600093869	-0.495114391
-2.053750236	-3.855087937	-0.561803463
-2.035334427	-4.180476414	-0.643947428
-2.155762225	-3.708896084	-0.670629412
-2.08417515	-3.9072666	-0.735257138
-2.025292316	-4.158743812	-0.815383304
-2.523460014	-4.335232765	-0.974683757
-2.219799417	-4.154887842	-0.962425555
-1.988661107	-4.084068132	-0.975156337
-2.046149665	-3.509166959	-0.946709723
-1.869785207	-3.498870232	-0.965763893
-7.13880386	-11.29828227	4.084961328
-6.550311529	-11.29275275	3.836352096
-6.017713462	-11.34168811	3.635324477
-5.475143493	-11.32401805	3.432035433
-7.109773669	-11.26060479	3.513606015
-6.544310629	-11.28240681	3.29991036
-6.021181324	-11.32768314	3.113739607
-5.499800171	-11.34266718	2.931121178
-7.101799764	-11.25537191	2.983850638
-6.549006896	-11.28460395	2.788761191
-6.010279129	-11.29717968	2.605332722
-5.514720952	-11.35374706	2.445961735
-7.066191948	-11.19893922	2.457583707
-6.564085274	-11.30694829	2.294510003
-6.016544069	-11.30181887	2.120985078
-5.511222383	-11.32490912	1.964400018
-7.060551192	-11.19129771	1.954699496
-6.528605179	-11.23724871	1.791567707
-6.019569685	-11.2932422	1.639834303
-2.123499649	-3.637330891	-0.345904581
-2.052994919	-3.828067368	-0.397689621
-2.046194618	-4.173541621	-0.471404897
-2.233140199	-3.518229837	-0.456079018
-2.125339801	-3.635671825	-0.500901706
-2.085266728	-3.885473603	-0.567161264
-2.044659751	-4.167098171	-0.642849986
-2.166631661	-3.70141209	-0.670474975
-2.090549112	-3.890426316	-0.733291674
-2.028929696	-4.133945156	-0.811737765
-2.525827012	-4.30883928	-0.97048747
-2.242751578	-4.167038064	-0.966829325
-2.004196593	-4.084092162	-0.976625593
-1.874523373	-3.48199555	-0.96268895
-7.183699277	-11.2924659	4.090807826
-6.584926452	-11.27260343	3.836352096
-6.057469946	-11.33250637	3.638321159
-5.506055608	-11.29936202	3.429666268
-7.185265916	-11.30320323	3.533759538
-6.597964065	-11.29492315	3.309475953
-6.058658592	-11.31429711	3.115154859
-5.538421975	-11.33361653	2.933159419
-7.136297188	-11.23353074	2.983850638
-6.590011765	-11.27543388	2.791478446
-6.045835823	-11.28041478	2.605731598
-5.547801233	-11.33324748	2.445200938
-7.150602267	-11.25604885	2.474918883
-6.62161122	-11.32587038	2.302461501
-6.041863757	-11.26591813	2.117716595
-5.552031641	-11.32036705	1.966557468
-7.105991533	-11.18711903	1.957768301
-6.58055948	-11.24709232	1.796347403
-6.058411856	-11.28258659	1.640978235
-7.136895249	-11.2357722	1.472349685
-2.124546346	-3.613615738	-0.344267569
-2.049582546	-3.793714124	-0.394772123
-2.051497293	-4.152081091	-0.469689595
-2.24445879	-3.51219969	-0.456187825
-2.128423461	-3.615442683	-0.499011999
-2.069347173	-3.827581492	-0.559634808
-2.048653461	-4.143047183	-0.640106266
-2.181489118	-3.700705391	-0.671556143
-2.095430753	-3.870981344	-0.730834773
-2.033744037	-4.111811365	-0.808613049
-2.524562649	-4.276555187	-0.964955981
-2.26019503	-4.168751055	-0.968831028
-2.011949502	-4.068283582	-0.974316864
-1.876396397	-3.459999893	-0.958194818
-7.202836675	-11.24621393	4.082038316
-6.64039749	-11.28790717	3.848475442
-6.109087439	-11.3452136	3.648401256
-5.574291314	-11.35082664	3.450461851
-7.211049098	-11.26726106	3.529422704
-6.645857515	-11.29718868	3.316098269
-6.099801004	-11.30762997	3.118456958
-5.589088816	-11.34890203	2.941539353
-7.190706165	-11.24282152	2.992164056
-6.6607839	-11.31668576	2.806736998
-6.096243781	-11.29112932	2.612514843
-5.590797477	-11.33290219	2.448815367
-7.184571593	-11.23322935	2.474736491
-6.657326386	-11.30719983	2.302807208
-6.09750046	-11.28638841	2.125070855
-5.590238456	-11.31036644	1.96779033
-7.184516546	-11.23443899	1.969897488
-6.597935693	-11.19783221	1.791704203
-6.101963936	-11.28052291	1.643393058
-7.190610513	-11.24396787	1.476307671
-2.133083915	-3.602792614	-0.343858294
-2.049787169	-3.766415494	-0.392584007
-2.05358337	-4.124392897	-0.467268007
-2.248231473	-3.494429327	-0.454773438
-2.12937779	-3.591812045	-0.496649807
-2.06827199	-3.797696926	-0.556190552
-2.07151552	-4.157133455	-0.643261555
-2.189302246	-3.688048212	-0.670474975
-2.112964257	-3.874927417	-0.732800294
-2.030094431	-4.072940876	-0.802189935
-2.540680888	-4.27385241	-0.966100448
-2.277200678	-4.169535912	-0.970632636
-2.030090687	-4.073467562	-0.977045444
-1.892592475	-3.464459175	-0.96103325
-7.260626743	-11.26023054	4.095192343
-6.701403859	-11.31205646	3.863700139
-6.143406877	-11.32557244	3.648128746
-5.622354071	-11.36047482	3.458621965
-7.274386804	-11.28978887	3.543453637
-6.684438551	-11.28341841	3.318060452
-6.136319699	-11.29227798	3.119400616
-5.623880448	-11.33170184	2.941539354
-7.268483284	-11.28798115	3.010103386
-6.70544417	-11.31302174	2.810917429
-6.149114789	-11.30594492	2.620295396
-5.637777349	-11.34031056	2.454142351
-7.253600167	-11.26486773	2.48659734
-6.714087459	-11.32399954	2.310412998
-6.140586987	-11.28322595	2.128012701
-5.63196018	-11.30731365	1.970256056
-7.230195384	-11.22981157	1.972966293
-6.674721751	-11.24910013	1.803175473
-6.144137183	-11.27568432	1.645426649
-7.247671074	-11.25695407	1.480925243
-2.146679059	-3.600511807	-0.344267569
-2.053194668	-3.745264291	-0.391034107
-2.045257139	-4.076278735	-0.462525683
-2.248133239	-3.470828662	-0.452597509
-2.155148407	-3.60998835	-0.500074988
-2.077528386	-3.786986023	-0.555552724
-2.092260576	-4.166692452	-0.645730857
-2.193002655	-3.668593725	-0.668158202
-2.141464972	-3.898689202	-0.73853295
-2.000588472	-3.983089158	-0.785698283
-2.303677228	-4.187424694	-0.976437535
-2.040384467	-4.062851822	-0.975995929
-1.902743988	-3.457785273	-0.96079668
-7.368038168	-11.35020082	4.136114985
-6.755739012	-11.32440137	3.874977813
-6.178124172	-11.30667158	3.648128746
-5.661056165	-11.35094202	3.46099113
-7.291624158	-11.24064919	3.535035077
-6.754784795	-11.32280235	3.335720118
-6.172334561	-11.27595635	3.120108242
-5.662104959	-11.32136363	2.943351098
-7.294587264	-11.25252786	3.006603161
-6.745633371	-11.30163318	2.813216736
-6.188480045	-11.29562002	2.622290482
-5.674301284	-11.32647231	2.454903147
-7.291870155	-11.24833624	2.487874786
-6.740718856	-11.28981701	2.307647106
-6.206474636	-11.32143034	2.138798997
-5.671942551	-11.30057901	1.97210535
-7.26838053	-11.21338838	1.973989229
-6.723429492	-11.25238035	1.80699923
-6.182042462	-11.26286852	1.646316309
-7.2940665	-11.25301469	1.483343999
-2.1720795	-3.617834034	-0.346559397
-2.060824049	-3.731973547	-0.390304725
-2.027677087	-4.010497578	-0.455765383
-2.25551329	-3.458919315	-0.45194472
-2.12886509	-3.541232489	-0.491452997
-2.079542543	-3.763232226	-0.553001348
-2.095195198	-4.140809394	-0.642712777
-2.205776079	-3.664387783	-0.668621568
-2.15771403	-3.899869674	-0.740007091
-2.012798996	-3.976932664	-0.785698283
-2.313663972	-4.175195276	-0.975236501
-2.055046697	-4.060934825	-0.977045446
-1.913343319	-3.45193154	-0.960796681
-6.822564182	-11.35708074	3.893303858
-6.21046365	-11.2834489	3.646766658
-5.707117418	-11.35593298	3.467835175
-7.340350668	-11.24008416	3.54192299
-6.767025795	-11.26462944	3.324683005
-6.216284171	-11.27398682	3.124825593
-5.729688	-11.36917407	2.960337228
-7.324809001	-11.22355784	3.00485293
-6.785312583	-11.28926638	2.815306952
-6.237309277	-11.30231942	2.628275742
-5.713447965	-11.31777465	2.456805726
-7.330643963	-11.23249923	2.489334623
-6.777353584	-11.2724604	2.30833852
-6.238794564	-11.29801715	2.137981699
-5.708815133	-11.2875323	1.972875799
-7.338429643	-11.24571533	1.983634212
-6.760473086	-11.23594455	1.807682061
-6.230005385	-11.26815469	1.649875182
-7.328556069	-11.23058474	1.483344
-2.191418641	-3.624799606	-0.347869031
-2.07420023	-3.729114612	-0.390669416
-2.029132769	-3.982982426	-0.453343796
-2.22847314	-3.394643933	-0.444437694
-2.151032494	-3.55337325	-0.494051402
-2.068889237	-3.716969607	-0.547133271
-2.088092548	-4.095533188	-0.636676614
-2.219568511	-3.661827884	-0.669393807
-2.181674213	-3.914774266	-0.74410187
-2.020963943	-3.962842841	-0.784135925
-2.325984797	-4.167221882	-0.975036347
-2.066163539	-4.051997638	-0.976415781
-1.929608493	-3.456225628	-0.963635113
-6.847940025	-11.32049877	3.887947069
-6.247850635	-11.26939222	3.648401258
-5.742365574	-11.33923098	3.468098389
-7.380643154	-11.22639867	3.544729177
-6.808578199	-11.25542793	3.32811671
-6.260279743	-11.2718535	3.129542944
-5.771597319	-11.36543773	2.963960953
-7.372602943	-11.2214206	3.010322252
-6.830548618	-11.28596544	2.819696476
-6.272906947	-11.28484343	2.628674618
-5.755265081	-11.31419278	2.459849615
-7.36938944	-11.21652987	2.490794223
-6.820577008	-11.26593872	2.311277267
-6.27678381	-11.28485908	2.139125868
-5.75059643	-11.28405028	1.975341524
-7.390821287	-11.25043362	1.988456469
-6.800046069	-11.22362411	1.809047723
-6.278059105	-11.2732523	1.653433937
-5.75036736	-11.26901266	1.500076177
-7.379894012	-11.23380027	1.486752193
-2.191127832	-3.599330493	-0.346068285
-2.072976339	-3.700145065	-0.388298969
-2.035436381	-3.965232243	-0.452032106
-2.282723053	-3.4541371	-0.453141492
-2.149519933	-3.526407652	-0.491216784
-2.090953607	-3.729638129	-0.549939755
-2.044521794	-3.979853696	-0.619665687
-2.186914208	-3.896019184	-0.741808761
-2.033562208	-3.957499924	-0.784309495
-2.335397823	-4.154087936	-0.973635161
-2.071882744	-4.032594624	-0.973267345
-1.934011821	-3.439279487	-0.960560168
-1.607594483	-2.857056206	-0.931307384
-6.921069425	-11.36252932	3.909656274
-6.302098279	-11.28545376	3.659843206
-5.792474017	-11.35163634	3.477311597
-7.418785858	-11.20934688	3.546514932
-6.889474201	-11.31065878	3.350681837
-6.298152916	-11.25853096	3.131193994
-5.813981236	-11.36241788	2.967811174
-7.397843727	-11.18491409	3.006603161
-6.887533201	-11.30169912	2.828893236
-6.309413661	-11.2689651	2.629472605
-5.78188936	-11.28075642	2.456425209
-7.407563478	-11.19960894	2.492071669
-6.85510841	-11.24496053	2.311277267
-6.323912792	-11.28792709	2.143374965
-5.783833922	-11.26371807	1.974879231
-7.43457913	-11.24173298	1.99094079
-6.849925652	-11.22807904	1.813144589
-6.314070988	-11.25653393	1.65381517
-5.787637903	-11.25661629	1.500782612
-7.411034377	-11.20613127	1.486092489
-2.208410166	-3.602787758	-0.34705051
-2.076488135	-3.679891417	-0.386840206
-2.043935512	-3.951899299	-0.451224881
-2.159289831	-3.518103796	-0.490980571
-2.095070985	-3.710250826	-0.548026267
-2.035321621	-3.932216775	-0.613217954
-2.169240723	-3.836907723	-0.731817532
-2.04524129	-3.950368197	-0.784135927
-2.353924366	-4.157134278	-0.976037228
-2.079300597	-4.016668502	-0.970958503
-1.937850533	-3.421493638	-0.957248713
-1.61635225	-2.852110684	-0.931307383
-6.944359556	-11.32243156	3.903171764
-6.348956088	-11.28787036	3.666926384
-5.841389079	-11.36126676	3.485734926
-7.44777976	-11.17848704	3.543963854
-6.912484783	-11.27046138	3.345040614
-6.343158813	-11.25778191	3.136383175
-5.857293701	-11.36097568	2.972114389
-7.464571525	-11.21089729	3.019729535
-6.924219548	-11.28384937	2.82972937
-6.34251309	-11.24699401	2.628874173
-5.839444796	-11.30745141	2.466127653
-7.483302077	-11.23902749	2.505939763
-6.899365152	-11.23982501	2.314561483
-6.362877096	-11.27620483	2.144845769
-5.841519008	-11.29067601	1.982738581
-7.484931925	-11.24275145	1.995178681
-6.889525836	-11.215452	1.814510251
-6.35833379	-11.25438129	1.656357188
-5.836762314	-11.26702351	1.50455046
-7.461352961	-11.20733594	1.489280861
-2.222070225	-3.600236167	-0.347459756
-2.087275965	-3.672637812	-0.38674904
-2.058808696	-3.950903856	-0.451830285
-2.179991712	-3.527512061	-0.493224627
-2.07751466	-3.652938783	-0.54049981
-2.044169898	-3.919806011	-0.612257664
-2.182466487	-3.832806367	-0.732308913
-2.053251981	-3.93621628	-0.782573511
-2.370550203	-4.156701866	-0.977638568
-2.093422455	-4.0137379	-0.971798093
-1.946412755	-3.412156629	-0.956302551
-1.613650503	-2.827088161	-0.924748848
-7.007294163	-11.34678712	3.91896032
-6.395413068	-11.28926772	3.673737285
-5.883761604	-11.35785499	3.490210043
-7.486886707	-11.16281178	3.546259824
-7.001534213	-11.33745909	3.371284778
-6.398291494	-11.27461028	3.146525737
-5.900203393	-11.3585114	2.976190874
-7.558691998	-11.27710285	3.043794552
-6.966001618	-11.27419955	2.832655718
-6.382795804	-11.23770703	2.631268135
-5.879545769	-11.29993457	2.468410513
-7.552235082	-11.2674704	2.51743583
-6.937958748	-11.22530748	2.31594431
-6.420840231	-11.29780134	2.152690455
-5.882068165	-11.28409159	1.984742012
-7.535911111	-11.24438905	1.999562722
-6.943703662	-11.22627699	1.81969955
-6.403133247	-11.2529251	1.659026283
-5.879112938	-11.26402905	1.506552221
-7.532776173	-11.23971071	1.496647041
-2.218901764	-3.570546353	-0.345249764
-2.101502001	-3.671402405	-0.387296062
-2.068145487	-3.939283347	-0.45122488
-2.196574463	-3.530081525	-0.494523829
-2.082303375	-3.635359462	-0.538841488
-2.060793177	-3.922284773	-0.613629523
-2.195687457	-3.828659968	-0.732800294
-2.062569609	-3.924667698	-0.781531977
-2.377923933	-4.140063918	-0.97543677
-2.106181207	-4.008162071	-0.972008019
-1.937027267	-3.371627078	-0.946604696
-7.643704019	-11.31329352	4.173237713
-7.038020079	-11.3187175	3.91670488
-6.445276762	-11.29633681	3.682455061
-5.923042946	-11.34830276	3.492842185
-7.027069654	-11.30110638	3.36686998
-6.44587128	-11.27770788	3.152894374
-5.942249215	-11.35416389	2.979814597
-7.537040042	-11.17054668	3.021260898
-7.006239941	-11.26190922	2.834955027
-6.437191198	-11.25294499	2.639448035
-5.929683839	-11.31140566	2.474878808
-7.562570811	-11.20838528	2.509406845
-6.979650612	-11.2156768	2.31836426
-6.475075184	-11.31229801	2.159227655
-5.927225643	-11.28611151	1.988286579
-7.598036657	-11.26222025	2.006869535
-6.985967973	-11.21753474	1.821748042
-6.439106184	-11.23580889	1.659407633
-5.924272789	-11.26615514	1.5092603
-7.571670816	-11.22313931	1.497526567
-2.228788188	-3.562032397	-0.34508606
-2.082417138	-3.61231046	-0.38173462
-2.059288746	-3.893344674	-0.446684378
-2.205285374	-3.519959966	-0.494051402
-2.123183163	-3.680501652	-0.546495442
-2.053353765	-3.879174844	-0.607867723
-2.156604139	-3.7339181	-0.715929854
-2.077365554	-3.923543527	-0.78257351
-2.381293165	-4.116635573	-0.971633401
-2.12121296	-4.006866128	-0.973267347
-1.919139502	-3.31689064	-0.932885792
-7.094095378	-11.33122692	3.928546416
-6.484217272	-11.28401792	3.684906957
-5.968158541	-11.3497171	3.498896587
-7.718834225	-11.35737294	3.623047532
-7.05604906	-11.27045589	3.364172035
-6.49353042	-11.2806188	3.159262774
-5.97523815	-11.33243306	2.978908606
-7.574016458	-11.1514064	3.022354761
-7.057369951	-11.26688157	2.841643623
-6.503480548	-11.28833243	2.652415624
-5.963900018	-11.29229269	2.47468855
-7.616809239	-11.21441152	2.515975992
-7.038083059	-11.23260427	2.326315757
-6.508271826	-11.28981526	2.158737229
-5.992320808	-11.32551478	1.998457518
-7.621993125	-11.22330709	2.004092913
-7.021928759	-11.19856742	1.822157765
-6.492884443	-11.2495052	1.664364475
-5.969036555	-11.26723153	1.511850717
-7.60327493	-11.19574583	1.496976893
-2.230674975	-3.540842447	-0.34369459
-2.088489941	-3.597292369	-0.380822907
-2.051573486	-3.850131418	-0.442446577
-2.211835766	-3.506458818	-0.493106491
-2.104072051	-3.621656648	-0.538713876
-2.083888878	-3.90781823	-0.613355163
-2.17152165	-3.733253121	-0.71707635
-2.088002698	-3.914545144	-0.782052745
-2.363334162	-4.056822414	-0.959222818
-2.13027512	-3.994300404	-0.971798092
-1.93713323	-3.324419115	-0.936670328
-1.777939421	-3.331144358	-0.959804064
-7.100686666	-11.26476848	3.913039671
-6.530372523	-11.28405792	3.691445348
-6.007918461	-11.34073091	3.50179218
-7.122127127	-11.29878273	3.379133755
-6.531032659	-11.26568767	3.160678025
-6.015003586	-11.32351034	2.981400079
-7.668221262	-11.21591784	3.046201148
-7.093989587	-11.24848529	2.842479756
-6.548409242	-11.28612627	2.656605354
-6.01050602	-11.29647634	2.479635019
-7.701121135	-11.26403899	2.532398742
-7.06830703	-11.20429442	2.324932929
-6.556252064	-11.29283115	2.163149879
-6.034010119	-11.32015573	2.000769222
-7.657506056	-11.20150399	2.004385214
-7.066829077	-11.1937252	1.824888969
-6.534345268	-11.24153811	1.666143794
-6.01994074	-11.27952914	1.515971783
-7.662829162	-11.20929093	1.501924317
-2.233520242	-3.521357664	-0.342466823
-2.110071639	-3.608921384	-0.382737498
-2.065258148	-3.847325628	-0.44285019
-2.218324197	-3.492950515	-0.492161638
-2.127695072	-3.636586239	-0.541903081
-2.07571096	-3.863884654	-0.607456211
-2.182964685	-3.726573561	-0.717076351
-2.100002351	-3.908120997	-0.782052745
-2.367836788	-4.036031468	-0.956020081
-2.139743006	-3.982578469	-0.970538765
-1.788150891	-3.32567417	-0.959804066
-7.125959249	-11.22835002	3.907964694
-6.57658854	-11.28392076	3.697983738
-6.046771119	-11.32990533	3.504161344
-7.734084742	-11.23095855	3.597791852
-7.144809925	-11.25805327	3.373492296
-6.583203575	-11.27580979	3.169169304
-6.056608825	-11.31788474	2.984797305
-7.135804625	-11.23822599	2.845406105
-6.590419427	-11.27867324	2.659597982
-6.053946953	-11.29442324	2.483249446
-7.738987012	-11.24521858	2.53349356
-7.134861013	-11.23327297	2.335477229
-6.594850757	-11.27947747	2.164457367
-6.0738533	-11.31116632	2.002464379
-7.759692094	-11.27656865	2.022067528
-7.122925319	-11.2062687	1.830488109
-6.579827008	-11.24026988	1.668939967
-6.068624949	-11.28724558	1.519504191
-7.724228114	-11.22503159	1.507201475
-2.244312998	-3.514488793	-0.342466823
-2.128712903	-3.615302596	-0.384105067
-2.067113857	-3.822593481	-0.440731304
-2.226890479	-3.482781972	-0.491689211
-2.111653106	-3.583896758	-0.535014454
-2.095098702	-3.871436898	-0.609651153
-2.191881412	-3.715610352	-0.716257383
-2.110576192	-3.899061648	-0.781531979
-2.376719392	-4.022843449	-0.954618837
-2.156605141	-3.984593522	-0.972637682
-7.188785866	-11.25090125	3.923471436
-6.636989715	-11.3076705	3.712422606
-6.078761301	-11.30620254	3.502581823
-7.877570886	-11.3645218	3.648303213
-7.210634341	-11.28509592	3.388208683
-6.624661609	-11.2672878	3.172471638
-6.091302962	-11.29925032	2.984797305
-7.176569932	-11.22616826	2.84791427
-6.639899495	-11.28373742	2.665583006
-6.096498769	-11.29048308	2.486483596
-7.801444647	-11.26183404	2.542617362
-7.186801163	-11.2387141	2.341181631
-6.636432293	-11.27109364	2.166745233
-6.107586944	-11.29074071	2.002156105
-7.772846277	-11.22180602	2.016514519
-7.169553285	-11.20355459	1.833629036
-6.621836653	-11.23284785	1.670846481
-6.101333397	-11.26508177	1.519033196
